ply
format ascii 1.0
element vertex 715
property double x
property double y
property double z
property uchar red
property uchar green
property uchar blue
end_header
-0.040350712402548 0.9311727905830351 3.1366561596142546 54 53 87
-0.2633227570182514 0.9315019117693977 3.128147574835258 127 113 100
0.6456162537248125 0.6556711766818805 4.365173317851154 140 112 88
-0.4940760869440116 0.9677834670628043 3.1181940106534247 150 128 115
0.4641142019271149 0.5618870234436601 4.824907455754758 142 121 104
-0.3962130445491216 0.7571259515005737 4.01509612589268 62 58 49
-0.7972672542270062 0.939115235741718 3.2530560228954535 173 165 162
-0.1341030241248549 0.5199094240885346 5.07767485985794 10 8 9
-0.4554396440767981 0.3022407691541382 5.507815339303656 17 24 17
0.1045457770467424 0.5797866068329086 5.082545795353262 37 29 27
-0.5175089571443093 0.3130746686398602 5.476606542254793 141 120 103
-1.5463527189591733 0.8026900512480369 4.072904055887937 71 70 66
-0.9328424978219718 0.472698126315508 5.303618325932329 16 17 21
-1.3252022750114716 0.6532631627381095 4.608539060685539 39 23 24
-1.3854610515315888 0.5978631786707235 4.794673482804545 55 42 36
-1.5878832233457731 0.8481963915372557 4.119368132978721 37 27 28
-1.3913125613274497 0.5906546387189172 4.8893582360366565 18 18 20
-1.5588846907627323 0.7284375089806816 4.482543332676617 8 8 8
-1.0310682648425313 0.5208794304428677 5.291369837030566 10 10 12
-1.5178845936075904 0.6927123743962673 4.622293325273813 13 11 12
-1.3335189322869736 0.6083920280962906 4.971380110922439 120 98 61
-0.5643840338790499 -1.0954521696566144 3.6231277358256717 179 180 174
-0.5734185809679405 -1.0241619937336537 3.4121237759390937 23 47 33
-0.5290672581586933 -0.9535143935679447 3.3450564818064135 17 22 18
-0.5005746845198342 -0.8916115392497604 3.283109200524144 33 44 40
-0.443073520242449 -0.887739669124155 3.3313230515305112 167 170 159
-0.7086193257119727 -0.6525888807925344 3.7418942812508753 33 32 27
-0.5354600689549596 -0.4506760720359132 3.578486117987341 108 109 111
0.24030151229759 0.5037326826616871 4.0512932475115875 25 25 27
0.2122297248090211 0.8705050264993981 3.0633646474666434 146 123 107
0.6990354606337046 0.8298059209626174 3.341915669363997 148 131 113
-0.5724510794982676 -1.0237518424410155 3.411261397097098 34 61 46
-1.3422826091797047 0.6022315629711305 4.946268686014743 11 11 11
-0.5761260631867501 -1.0022519581876228 3.3710541905386586 176 177 171
-0.5089637060500266 -1.0103234667294771 3.4906700884207513 67 65 66
-0.4914840510220065 -0.9110958086274606 3.3259070873707692 84 85 79
0.2012258040308336 0.2694026441649128 4.15138996674661 30 26 27
0.0887837468681058 0.6001487352673924 3.8527854865815616 20 20 22
-0.9563991488512742 0.9698342199970862 3.269211182783919 152 130 116
-0.5539381582312671 -1.0139095079281044 3.4659490391369543 124 120 117
-0.8298712494299576 0.9601717612002846 3.2342177166754293 142 123 93
-0.5558922642335494 -0.9854036663788339 3.4565537866734535 141 142 137
0.2456486780387836 0.5662737871165598 3.9517937818727074 24 24 32
0.2495478233533098 0.9248104592439129 3.0430550012977653 148 125 109
-0.0260535774825179 0.9427499614518811 3.130768479651316 30 29 63
-0.0871532911438613 0.5681753528640546 4.368532019610325 4 4 6
0.3165625758751577 0.9778788475236176 3.110675329398127 15 15 17
0.5354529344645843 0.7910758281167536 3.2998333311167296 165 145 121
-0.7492195664542368 -1.2376919483903923 4.102201948898761 36 43 25
-0.6658162243287941 -1.1832039492458248 3.698022963279797 24 33 14
-0.7963765567633818 -1.2138668790052833 4.2466530012909764 41 48 30
-0.6780260104425259 -1.169337686145439 3.9460655688252015 50 50 42
-0.8370810459769685 -1.1500526912694315 4.473290751888528 35 45 36
-0.5768685543514072 -1.0434288940193681 3.4830808635229533 149 147 160
-0.51646298056454 -0.8948759052391779 3.2623159926232987 18 26 13
-0.5003094991049332 -0.8845033489792188 3.2497369108936316 125 146 127
-0.8268215853347957 -1.0221602174165216 4.741546318511157 66 84 72
-0.7299133634610867 -0.8164877669456462 3.7866843099943037 184 185 179
-0.7324025513704143 -0.805402632887732 3.7931282217336144 176 175 173
-0.4193631740204941 -0.737989920241409 3.1760517913936077 183 182 180
-0.3977934849017713 -0.6863978611515871 3.1371265335977743 190 191 183
-0.7531240697645268 -0.8458197605524108 4.914148103963409 29 28 36
-0.7614603117396331 -0.6280471029512072 4.1130592325976485 165 170 163
-0.2967821433148116 -0.415611265120108 2.982202092482146 25 35 26
-0.3004617250369838 -0.3991079719394689 2.979107517206471 11 17 7
-0.2950625632758413 -0.3866384011065016 2.9830274990260524 98 118 106
-0.286715118850542 -0.3747854606952342 2.9740716389842685 19 32 22
-0.6116471731648452 -0.3368059503970024 3.8163685726365006 170 176 176
0.0596690158406823 -0.0410165182773426 3.1956484936845984 25 22 15
0.0704867597069798 -0.0387063525691457 3.201569599309326 179 179 171
-0.6761606733108354 -0.1025315758161328 3.4924884060134302 164 164 152
0.0648018494443165 -0.0280486210407572 3.193064965985221 174 174 166
0.1312254309249317 -0.0291955696930797 3.2762211300751467 22 19 14
0.1776686787237727 -0.0027712829301403 3.314397662755242 156 157 143
-0.0308330828092828 0.1059780196431391 3.0307021212985763 16 12 9
0.0210839886768765 0.0871964641628522 3.1278305342240573 178 177 172
0.1972031749663396 0.0504870693699706 3.3090766744183893 148 149 135
0.1252244034141025 0.0773419914553805 3.196743337798756 178 179 173
0.0021098409271733 0.1163319204384838 3.0316668395904274 180 176 173
-0.0088524084121412 0.1171550062790864 3.0279991081182036 187 183 182
0.0045654706198991 0.1046769316177939 3.094132178850676 27 26 22
0.0229235358445026 0.1024140372558879 3.125420932291896 26 25 21
0.2059727815060499 0.066335209343967 3.3103528426038293 148 149 135
0.1548041440049851 0.0895849627338526 3.221736093996896 163 164 150
0.0965667045075653 0.1056043944698526 3.1608166500777455 183 184 176
0.1608596343804918 0.0988042406633546 3.2268941267870397 26 27 22
0.1652454975179926 0.1013544587482635 3.236337056617832 175 174 169
0.1817956551853348 0.0971822090765606 3.2637303862251903 176 176 166
0.1619536301113425 0.1110919946652618 3.2245886256783796 174 175 170
0.1974709376042574 0.1109115782592153 3.274641559091245 153 149 140
0.1242979590006759 0.1422008950911088 3.164848219424997 176 175 171
0.2279416827981461 0.119813960749223 3.3069446926757826 22 21 17
0.1597333078039588 0.1459595695714427 3.1928795327990107 176 176 168
0.0935802483094639 0.1625293120656619 3.143669391934728 27 24 19
1.2096157938238061 0.1362442836740924 3.4474145098223943 166 165 160
0.1612021800119008 0.1596230630742274 3.190263764455704 22 19 12
0.185423725975925 0.1539197215994818 3.2292412131483568 166 165 147
0.8340154417918254 -0.366538713761727 5.471988658474248 59 73 112
1.2290518481655142 0.1581485159096612 3.4341804020535087 85 82 77
1.1661592279386657 0.1611953911589518 3.423279784047819 156 159 148
0.2178719923120239 0.1623731539195112 3.2682140025810247 159 157 142
1.2452947274546242 0.1706374584561072 3.447104120085127 36 35 30
0.1882943777723086 0.1789612987620963 3.222429065550915 165 162 153
1.2414119139279884 0.1768913807337539 3.468247272242423 73 69 66
0.2180209334960412 0.1864628765185482 3.260166555578676 161 159 144
1.185946178941166 0.1922564519393262 3.4544996827880716 24 23 19
0.1825143966176446 0.2132568823716137 3.190370323906168 164 162 150
0.175784393908015 0.2174580716321561 3.179918986817892 177 178 170
1.1853377352557024 0.1833792170141657 3.519664247649301 161 160 155
0.2105272338275804 0.2202018578703484 3.2251028341547574 174 174 166
0.1822898112849539 0.2263400364350553 3.1854789553035685 23 22 18
0.4905253565382188 0.2221556373964735 3.3070806940124005 18 17 13
0.1844593696656421 0.2386259915893883 3.1831265963673228 167 169 158
0.2338817809549057 0.2354361593728498 3.25056942816491 171 170 165
0.2177347968181738 0.2377882391036105 3.2266340280936685 170 167 158
0.2398659509206295 0.2455445696078252 3.2545130077783626 19 20 15
0.2399250548093119 0.2582165228126433 3.2513272898514387 178 178 170
0.2434750582901471 0.247900594633775 3.263883428032765 172 171 167
1.0429762626651249 0.2940348856271413 3.331455270211383 10 6 3
0.2078180145928931 0.2809625360648912 3.1873505721966606 163 163 153
0.1885275121630388 0.2906603130916662 3.153305356528036 29 26 17
0.3424600961988338 0.2713209061722782 3.272226979151068 176 175 170
-0.4413946188199527 0.2568459709191631 3.130472573318432 98 101 110
0.4516437694619627 0.2784023248277752 3.2801802907588935 18 19 13
1.099654765470737 0.2564920929202367 3.542962745229034 35 32 27
0.2107922395053136 0.2957698327027197 3.1845656410569583 27 24 15
0.2314518466070154 0.2912349954227046 3.221993380487932 162 159 150
0.2578270732169206 0.0628885989419848 4.136495985312263 25 27 16
1.0578424046843584 0.308412735132595 3.511953078902211 34 33 29
0.3608497404775656 0.3271531059295468 3.2595956059797575 19 18 13
0.4075784113157858 0.3336237902134035 3.261940016058136 20 21 13
0.2613800309261342 0.1055667619126003 4.1240422511106845 13 10 1
0.2397152374903419 0.1087518754914279 4.112648335155093 157 157 147
0.1309649819905712 0.3688861540213823 3.12289168642152 103 107 119
0.8708573404314092 0.4055744073717027 3.248091444923616 21 32 24
0.2361550235595495 0.3721004533289954 3.182959204848566 176 176 168
0.2002785324741312 0.1027588425480717 4.200198942965636 151 135 122
0.241093220583863 0.1198230517683737 4.144113134729796 150 144 130
0.1895141078361941 0.0998735669041961 4.216666448259633 52 35 25
0.2829441436191752 0.383892433384618 3.221992644600039 21 18 11
0.254317274880844 0.3800449018020217 3.2124743746991498 172 174 163
0.2320298015243112 0.1378143121301295 4.126774912721752 155 142 125
0.6065603226871705 0.4165096419016639 3.239455465459499 179 181 176
0.8209069644402935 0.4577954481070811 3.2558576038230975 21 20 16
0.1621319437944553 0.4373670315102638 3.1202694500249306 19 19 27
0.1827311704920438 0.1505411690312713 4.193520102978643 149 130 115
0.9757130577575169 0.47039881247188 3.327071920395299 20 16 13
0.7817948579062883 0.504415354240381 3.2332302059523754 23 22 18
0.7761421836692933 0.198656741559961 4.40923441834198 24 20 17
0.5510507426004441 0.5159776630155631 3.193675973627356 23 16 10
0.7659627991322836 0.2091601358549361 4.405114839180162 27 27 29
0.7530580302147442 0.2130578507038791 4.427151719102489 27 37 38
0.732120525093922 0.5424038989277663 3.207749830079556 137 129 106
0.7191845350413343 0.5437320388859768 3.225005508707587 21 8 0
0.7058244596924076 0.5477344622043078 3.24743027727264 45 27 13
1.1202961219839795 0.3378570715640812 4.320700083444273 142 137 133
0.3809894084837966 0.5734539293258314 3.172405519187353 50 34 21
0.3402027714511093 0.5788582416779195 3.1632076537989815 152 132 123
0.3838109519874447 0.5917860287070438 3.165573703938449 23 9 0
0.3317101170107057 0.5854572108707942 3.1557997548618046 24 8 0
0.5792792932647737 0.6155487244508667 3.167814611708255 12 15 6
0.6612076181569256 0.6056339699494782 3.244356651330979 24 7 0
0.3591430958270049 0.5929953389307366 3.158746482643996 25 13 0
0.3837837945581521 0.6026450449990453 3.1550636256634252 153 139 126
0.2786746441226889 0.5939308353247734 3.1507486570777794 159 143 128
0.4580140117531685 0.6157398856298253 3.165301216173746 146 133 125
0.7793296394667973 0.5868267635065605 3.431319123435089 46 26 17
1.0819277657536623 0.2206368695964575 4.871436972918998 35 30 26
0.9352648519330095 0.5435604104648043 3.772998701419989 31 15 0
0.2816033807428645 0.6588479775044261 3.117534945024024 147 135 123
1.044172670754883 0.2423610761980087 4.978157105053518 125 122 117
0.3731136695541222 0.688455210292039 3.1494264425349985 161 142 125
0.5641983742802971 0.6938317500359367 3.2248686080690865 140 123 113
0.3607951423760669 0.6879751166008399 3.145222701949555 37 20 10
1.3367283276217465 0.4430593028116988 4.468316050825456 55 51 48
1.3118931868426358 0.4516204781683461 4.441065557060036 34 24 23
1.3114708558543082 0.4573502509501953 4.4296404283056185 142 133 134
1.043058877234059 0.269646033202856 4.95834129944537 168 156 144
0.9806291010791306 0.6093589231192498 3.7524999859568133 26 8 0
1.342760916095089 0.4836103239622572 4.390440103521747 29 13 13
1.3375897987436176 0.4492776604422564 4.529389702112748 47 43 40
1.348925113456888 0.4586122701826571 4.50198206405145 33 24 25
1.1906960763147842 0.4002779389150125 4.654051368565227 149 143 143
1.3510148303530223 0.4597781644705426 4.514847454358773 30 22 20
0.7018645770997868 0.6720874430814161 3.496045985259142 34 17 7
1.3748715757144374 0.4907667560231522 4.454939651100783 41 25 25
1.0999115575040153 0.6669331234438534 3.7228668780805623 32 13 0
0.7588959132961604 0.6735320587820384 3.531843404090629 34 11 3
1.3194996893345738 0.4379823382695798 4.619243684519603 32 29 24
1.0308500773957576 0.6604103036667064 3.7067650422986076 29 19 17
1.5365744791262275 0.581002689573823 4.253691986969662 32 26 30
1.1779017341075826 0.6837363603686565 3.737689300572431 35 16 1
0.8580589781848444 0.6701334373649521 3.6215946305976217 36 16 5
1.3475280843699367 0.4906399487943937 4.470654034992271 162 148 145
1.456277367314779 0.4841265037596799 4.578076456818556 40 30 31
1.4323558926844473 0.5127932733852335 4.464622507272903 39 29 30
0.663443241266022 0.7020606547581313 3.444924128990988 34 16 6
1.4129355098424867 0.4653541274709415 4.634139876304346 28 10 10
0.5216280355399172 0.7567585097740139 3.1960423134472307 22 14 12
1.3055034730980708 0.6944401876397047 3.781520360242323 34 18 18
0.3327550538163959 0.7324955994753753 3.1920823713381994 4 9 0
1.427131921709864 0.6510742998041903 4.00295802022409 160 152 150
1.2355637433490374 0.702596660679451 3.7533784778617427 30 12 10
1.344159586289106 0.6907121082509575 3.8671916268867506 10 0 1
0.7792075157355941 0.7199164416547563 3.50716937095013 29 14 9
0.585883409359453 0.7735102534326863 3.2595356040869152 25 11 2
1.2503252519345012 0.7231288265674136 3.7566255420293597 28 14 14
0.9136836032892303 0.740629019212134 3.541508468294567 32 17 14
1.5282228552856032 0.590799609446891 4.379427744618861 20 19 17
1.3569291056727335 0.5923983315544985 4.302737636891782 151 141 132
1.3382222410535978 0.6268639359220081 4.196136421439973 23 12 10
0.7713781305705562 0.7677271580664853 3.4417642333949794 26 9 0
0.5710147481368755 0.8200423137985302 3.1960134731034455 139 123 110
0.9576490935384158 0.7962014310859106 3.472086495882463 46 28 18
0.696698203300109 0.7801183539675816 3.4040144405738553 41 22 8
1.0461432986893353 0.7830041420536124 3.583129913100104 95 95 103
1.179335016877322 0.6637309998230513 4.053599720067633 33 20 14
1.1461473149186914 0.6479512422027865 4.1165139979828425 38 20 16
0.8812989159828414 0.7850198141338441 3.5401272241612127 153 155 168
1.12415731279672 0.6932376146904751 3.9778621244225287 25 15 16
1.31078503585151 0.5303482321597311 4.642528028356632 40 27 21
0.5075312109274126 0.7958345774283743 3.3321938272863583 157 134 118
0.7190062499895862 0.8187213051230774 3.376229973006207 28 11 3
0.501911983970352 0.7926872317585577 3.3479126693388754 47 27 16
0.2503540114278794 0.8449684989677398 3.0647960144228343 131 123 112
0.6527160693670796 0.8417218025620253 3.3109051309709034 73 50 36
0.6643078683780483 0.8459910777171831 3.3187976694994865 144 118 93
0.8422119493269316 0.7499818628299602 3.744849496628197 46 35 29
-0.2938841370737251 0.3806372613805251 4.379019405751641 36 21 16
1.01234025318101 0.6774523564734158 4.094055864293928 42 25 18
1.2026054370896566 0.5293499539982275 4.711489316550233 41 27 26
0.9874576885711838 0.7191574710450187 3.96361429444491 45 29 30
0.7684033856556057 0.7567999904564174 3.7409274233461636 29 21 18
0.4738957774713435 0.850595999643039 3.2742919047600125 147 131 118
0.290508062921578 0.9123966127619254 3.0283536291042408 151 132 115
1.0502727141018795 0.5780898968157621 4.57183112807706 41 28 22
1.0953730525674095 0.5484135713416322 4.692929340289623 36 25 21
1.0473091125802074 0.5655791690128317 4.646783444608319 43 30 24
-0.4126511324255326 0.4452684771765186 4.222047621213981 38 20 16
0.8410013932584012 0.6924964309004371 4.147878263656897 40 25 22
0.5683453901923468 0.7282160545860675 3.947226387612849 36 17 10
0.4853285237412104 0.7135859330710357 4.024299124382351 39 20 13
0.4167083367133649 0.729287847630537 4.043768227568063 53 34 30
0.1333926878382369 0.839566216977553 3.5508633252227915 41 32 27
-0.2088954520373688 0.9431745066453128 3.1420493851488684 104 117 162
0.6734072517260268 0.4949844184917315 5.134505446010942 34 20 19
-0.5388772932028305 0.9739003765208399 3.1443873694759015 37 27 25
-0.0441770095274881 0.5885926502315804 4.7094442925947035 100 91 86
-0.1056923969666675 0.5421575718225171 4.922190712919449 130 124 124
-0.2763331562415419 0.3875779780122209 5.521716254166466 84 75 78
-0.2209749190754985 0.475257964495507 5.301454321354013 71 51 50
-0.840218252378345 0.8717339547601121 3.6912955227743574 35 23 23
-0.4262203115165749 0.630573208800089 4.724442373152388 148 120 96
-0.7194199568838604 0.8294316274623674 3.9785513782118755 43 22 17
-0.590247558304977 0.5154829879106343 5.165610341985906 63 42 37
-1.2611002311108004 0.8871566370951751 3.728661254993746 38 19 13
-0.3870964719522059 0.4185520415998785 5.751556572597678 53 40 21
-1.1549806443443218 0.5161465907104031 5.176800580764983 134 135 153
-1.3659580207726323 0.6768295155655273 4.56240113175618 48 28 27
-1.4294083295963216 0.613717221113746 4.832966500382752 217 227 229
-1.4491330751441205 0.6292070479867659 4.81788019585954 85 84 82
-0.6653623343102582 -1.19488363227257 3.7060474781013935 177 184 166
-0.6611370923186919 -1.1957999689370864 3.7170667206339667 25 33 22
-0.6866973724918283 -1.2018884341847007 3.7399048899692975 150 161 155
-0.7351257375745831 -1.2019126709090797 4.005070905382117 176 178 173
-0.6615609804253945 -1.1529125741271793 3.659739830472959 17 30 13
-0.5886317906156396 -1.168844308718799 3.687585985987698 25 22 29
-0.6346088743544418 -1.1502564773265653 3.598538072521355 180 188 164
-0.6439229690172613 -1.1477776461130857 3.6193256697368033 18 36 10
-0.808396957651502 -1.1928034871091993 4.276145963671493 29 57 42
-0.6802744049783006 -1.1691221644842904 3.9467507698914224 50 50 42
-0.5976884967973268 -1.134052266060786 3.6268213044104836 176 175 170
-0.6582449312306216 -1.1369930777695831 3.6959808158684044 181 183 172
-0.6218050755722437 -1.1045922375266548 3.531774992865001 173 192 172
-0.6233864340040681 -1.09484834693069 3.5299285984370643 17 29 15
-0.8267287099104328 -1.1497457442047097 4.453605891500946 161 194 183
-0.531041729241382 -1.0653744202236315 3.4756214188208943 186 188 177
-0.5775316009906142 -1.0529601941500053 3.4862183719550632 32 34 33
-0.8345823514466479 -1.1388745383403969 4.460255140604658 7 31 15
-0.5868062170806082 -1.0260867846518287 3.4186407891265334 28 35 19
-0.5961369462741944 -1.0198062253589875 3.411304011362444 176 184 169
-0.5273372944233885 -0.9460394185734627 3.359747941193903 177 178 173
-0.5181255072013049 -0.9238283134210754 3.2813778273271157 152 155 138
-0.504893131011341 -0.9239775191076206 3.327915761434575 153 149 140
-0.8121455018919421 -1.0709914622608165 4.6655029510728605 179 187 189
-0.8362998409006585 -1.061382002919215 4.661617900096776 29 40 26
-0.5077828538195501 -0.9086378216889174 3.2712438172966145 12 35 15
-0.4810689692739669 -0.9049966236762086 3.29859230474774 151 151 141
-0.5165172774941842 -0.8948899369441955 3.262570749858738 13 25 11
-0.8163524035284155 -1.0522294150760827 4.6764907233407875 45 87 75
-0.2649445351847737 -0.9138385298701509 3.253574368829356 30 26 23
-0.4941813803142358 -0.822948570405654 3.2003747389028323 174 179 172
-0.8395300952206348 -1.0066294122887676 4.777715858844148 27 41 28
-0.4718297362232721 -0.8058213455475587 3.2230897970621752 33 29 30
-0.4645287712995127 -0.7960060132593632 3.2235816105876904 164 163 158
-0.429996231731632 -0.7789774315876331 3.227064754178331 26 25 21
-0.4753672398475171 -0.7593098455448768 3.1596854288777236 177 182 175
-0.7260804162143701 -0.81698739101332 3.7794301654833413 175 176 168
-0.4495962057077141 -0.724929184129221 3.130662472514414 168 177 160
-0.4121452356637614 -0.7141328168628077 3.146002573849076 60 58 59
-0.8322114678342191 -0.950271505389232 4.847162783661198 24 32 17
-0.4488836978075401 -0.7008091201180024 3.123117896982814 177 183 173
-0.416839272185986 -0.6551864496274231 3.090926782494809 171 180 159
-0.4127447512679436 -0.6553042074105488 3.1419106041658256 182 183 175
-0.397885125437304 -0.617643957555766 3.0717434252615243 179 189 178
-0.7859977638226732 -0.8898297670684704 4.957741424504361 201 213 211
-0.7763531957844323 -0.8453660961387156 4.944995921959068 199 201 222
-0.0853793690903348 -0.6077355653619774 3.468860833330659 174 176 171
-0.7898379530468095 -0.8219644746641581 5.050467731566053 200 211 205
-0.790154634415542 -0.8201861074774687 5.027905271644313 69 126 107
-0.7317779169068332 -0.7953501939606973 4.918798135853557 200 205 211
-0.3090022650182688 -0.3740082563492965 3.002109548685846 18 29 21
-0.276977551533268 -0.3635012307090955 2.96108262572132 170 177 169
-0.2353234032643053 -0.3421618994149637 3.0154971244256674 176 176 174
-0.2346823934096247 -0.3211609881222157 2.9835488472493537 24 22 23
-0.2373741059311442 -0.2519048214010702 2.9409135491936724 167 174 166
-0.6304335392515553 -0.3491195995820793 3.607965712447835 167 178 174
-1.2403293428171709 -0.2817930893460807 3.8890579858014163 47 110 83
-0.7785219019260577 -0.1630669801799417 3.5758246084941616 23 21 22
-1.1907412795869399 -0.2792560105239643 4.6544228421500105 29 32 25
1.2113785311069187 0.1417249093787883 3.4354618310320717 164 166 155
0.3521036973024988 0.1332912871728039 3.3235470877357094 26 25 21
1.223497470424464 0.1468707543476067 3.4817406490322416 171 171 161
0.2162424311646454 0.1577187511376119 3.270863191660435 176 178 167
1.2184335809423184 0.1780132872605045 3.497502335710518 40 40 32
0.2093627386601448 0.2336426795852234 3.2199237148168485 23 19 16
0.2599205703501766 0.0489710313009055 4.118884227334248 19 18 13
0.2036382297284579 0.0364445280236026 4.187136637656134 159 161 148
0.550800497169862 0.306342930458581 3.2697969397988724 22 18 15
0.5317002233633227 0.3096381252020715 3.2631303520781514 173 174 168
-0.5118344790655597 0.2677714456276512 3.1377465849300745 15 14 20
0.9838586994361161 0.3305968375191893 3.31858317625745 21 20 18
-0.4844400569668357 0.2869627627460056 3.1348238426759067 92 96 105
0.9384197043600643 0.363663593534363 3.298944859757937 159 160 152
0.2761714499419401 0.0966502997269048 4.126936293404487 163 159 147
0.107288323861499 0.359337571897536 3.082277441547354 104 108 117
-0.4526936408749998 0.3091967107195531 3.123443545501003 91 95 106
-0.4897792218293383 0.3002707715837353 3.133178523490928 23 27 30
0.1205236624919149 0.3699949019343797 3.088979266520249 19 19 29
1.003648313158932 0.3711698762947412 3.3420581586885265 24 23 18
1.0070765851120596 0.3830124119788232 3.398630899986944 38 37 35
0.4269955679483736 0.3913485262015515 3.23394392578096 176 176 168
0.3472424742624728 0.3874574581514485 3.250381690074515 20 21 16
-0.3712635211627663 0.3693538377819035 3.095207448673585 85 95 94
0.2302375195072754 0.1494316871343886 4.124393251038599 55 42 26
0.2155753165436598 0.1774507820338682 4.12811655610551 37 32 29
0.6117684301556253 0.4723827361733781 3.2024678626038656 23 22 20
0.9262858281048786 0.4788281927638531 3.348506876706662 156 143 126
0.1771887395460516 0.1810828123818535 4.186493381604794 55 40 37
0.3032007659200978 0.4653834479546483 3.1916701158752634 168 169 163
0.7688679507642203 0.4946852187354711 3.2681772390036374 146 149 128
0.1719051322520461 0.4933723675877305 3.0931433889657627 138 144 118
0.2226577689521544 0.2330996600529026 4.12061998252043 155 138 120
0.132501435417994 0.1804298390386616 4.291234095306809 160 144 128
0.800826030051883 0.552340311626933 3.271552591053349 40 31 24
0.6558896251113063 0.5302492773040222 3.3140599206314283 149 132 114
0.5512470263184582 0.5830133143726052 3.1700142377023726 151 135 120
0.2341976015076292 0.6232571917852455 3.102091536181814 155 140 119
0.2501883576029759 0.6376845861434711 3.1063464382000383 16 13 6
0.9347864789015011 0.5430319256162708 3.7732018330529677 31 15 0
0.4093619896027386 0.6696753660139031 3.1485232014698328 151 134 114
0.3114869331522017 0.6661795463975516 3.1376364534019516 160 143 127
0.3758600379084539 0.6673328435580023 3.1468818655954616 19 8 4
0.3759336582148816 0.6840390205943143 3.151789786835879 160 141 124
-0.0233236760193443 0.2567998705491192 4.480330843463417 24 19 16
1.3014459529636742 0.4579408473521759 4.456311613003198 159 144 137
0.0034965210926978 0.3033916801603993 4.4228157831275245 156 139 131
0.7608036858193319 0.6741514056654645 3.530979887189676 34 11 3
0.9000525084186628 0.7009880727308436 3.5977028326950915 150 126 124
1.2593506431084514 0.7247717018925478 3.7175010816474843 152 130 107
1.4131472022335 0.6664950315506 4.052650374511743 15 15 13
0.7913397557655294 0.7465586119990967 3.476594745418571 37 20 12
1.4511943175285347 0.6595304045458931 4.104105109613811 25 25 25
1.2858394359560514 0.6707706856834788 4.004838329630485 25 23 24
1.4108041785829573 0.5590378803987525 4.450884733366572 27 27 27
1.4346896787408696 0.5959096970216855 4.347347580550412 136 125 121
1.4343986418430257 0.6991513845524758 3.9917307533477997 154 142 130
1.3339266423698324 0.6337956562973054 4.154078153795206 136 127 122
1.418323713109356 0.5441732583387991 4.527862861724796 150 139 135
1.3789326249958986 0.5668191912996435 4.446794422858205 163 145 141
1.2596199827075767 0.6803043074843163 4.000910421435879 148 136 124
0.5309211683536602 0.8233663574779047 3.2407299984122484 30 17 9
1.0004769267623448 0.6229958801338165 4.2042078347314895 146 128 126
1.4421638900054254 0.7331235121195686 4.0812998387642505 146 133 124
0.4692412442291425 0.8516578725471882 3.2632968130174222 33 22 18
0.2267818872847042 0.868656950122162 3.081139450058331 27 16 14
0.9414143408949491 0.8543365829648966 3.483808287199796 11 12 7
0.6907818581245554 0.777708863152573 3.671726535553378 37 28 21
0.969622649442665 0.566434340754918 4.675372690210123 35 27 24
0.0522636987889547 0.0990314202110765 5.7053451543616065 23 19 8
0.5052247847867791 0.7580865894754286 3.8955219418929454 35 17 5
0.542555982920987 0.6006960311570989 4.467388470295777 30 24 24
0.2836777420763352 0.7807617450024078 3.775330061547887 125 103 82
-0.1113061521868776 0.5352627675871019 4.332496825855695 30 24 24
0.630293290692623 0.6187366855484747 4.541211755960929 42 32 30
0.5605255362754175 0.5192173647088115 4.853808709183689 46 38 35
0.6145690942905444 0.525050870917159 4.977934731688275 38 21 14
0.3730438578552941 0.6433080091515663 4.49665868788801 24 18 18
0.5454002937374943 0.505214743255808 5.155610806013714 25 15 14
-0.0433075656539566 0.7764292994442107 3.933186715226761 49 34 29
-0.4782447306354207 0.9655321920725334 3.135558016347379 38 29 30
0.515248183461228 0.5177065022176782 5.160237904631056 144 122 108
-0.1539879967858853 0.6828964978988389 4.2692582635353045 139 127 103
-0.0711847914619871 0.6966204086006534 4.322802726086729 116 102 89
-0.515290125832486 1.0064547839329692 3.16562767804588 114 108 92
-0.1268662371847456 0.5567695365339803 4.826287687718882 25 24 20
-0.0208517981224491 0.5439781603851901 4.978994642029754 113 93 82
-0.0879456834972444 0.5525728678017248 4.898529747621377 23 17 19
-0.158347410265592 0.4763951371391936 5.171707296686718 23 18 15
-0.8146082922153515 0.9553759946119907 3.2871278688197347 23 17 29
-0.845606826376658 0.9400957434651269 3.3472725582365856 43 37 39
-0.4709912319986974 0.7828667527167021 4.074213431230738 45 29 29
-0.8218419645438915 0.9716957790543203 3.2821667600449245 28 26 27
-0.1631462987225195 0.4579505257737165 5.316293996236332 30 25 21
-0.1935952946008725 0.4881317086252222 5.256240787296282 130 114 91
-0.6821177382730769 0.8217828629905681 3.9362575958268584 39 20 14
-0.4397253824664232 0.670860706664984 4.603713569570324 42 23 17
-0.8134671624128661 0.8474391569403474 3.901200662010114 26 12 11
-0.5466861904581237 0.6305351061232496 4.7774215724622495 134 105 87
-0.5914765083332931 0.6410083086417008 4.781333826835577 31 17 17
-0.6079581534510533 0.5934941360731097 4.911099636150274 45 33 35
-0.4127125973704602 0.4052181282092562 5.734507521062466 22 18 15
-1.2630846124195774 0.9385372286725824 3.582646893399999 26 16 15
-1.5697782327208447 0.7639745200412219 4.191452994800503 121 100 79
-1.1431637263178538 0.5542576941154321 5.173418562604534 26 26 18
-1.444466382842006 0.7320379204345265 4.447986335324228 145 114 86
-1.4393740200437166 0.6131198041508729 4.813229542412816 30 27 34
-1.4403779763775328 0.614978237790427 4.823618798463724 215 219 228
-1.4348756861398435 0.6519103508626075 4.796934358820128 19 16 9
-1.450636796170464 0.6697358209053155 4.751438293771614 100 82 68
-1.4275987084187656 0.6568558215856088 4.805196427108057 105 89 73
-0.6980541000952223 -1.242174251615117 3.9226689393391316 25 44 25
-0.7691328113629651 -1.2406127127220168 4.118243008171041 169 172 155
-1.4484008100889334 0.668116373454087 4.75666224030184 108 92 59
-0.6819152026275846 -1.1834138009659043 3.8669659454551923 173 177 188
-0.5770646606058405 -1.104580974656522 3.590810568445994 179 180 174
-0.5501715762529784 -1.0816063756849472 3.507409205691593 31 25 35
-0.5574394173020029 -1.0819440756468608 3.5226816119944133 192 191 197
-0.5754450502953935 -0.9990622212023964 3.440648415828605 180 179 175
-0.4495791263893809 -0.8142596113051067 3.235129012758231 68 66 53
-0.4252780796807894 -0.7533043990710001 3.1761519181301616 185 182 177
-0.377137584004007 -0.5986225965423247 3.059197132605229 27 41 24
-0.6230410961685372 -0.601657023266549 3.634088598685776 164 175 171
-0.3293555702276416 -0.4751030033565676 3.00566810617295 39 60 43
0.1751325384313352 0.0006105992152747 3.314794610746795 169 169 161
0.1275789622134222 0.0124924273213724 3.2372368973156953 173 172 167
0.1905483316524766 0.0894128874358454 3.275490675753627 180 180 172
0.1928893420538363 0.123909624264058 3.2615905966394823 174 174 166
1.2145687069538058 0.1403986544630231 3.4671481129547965 151 150 146
1.2268408231122947 0.1545266118950483 3.4527535479800595 172 172 164
1.17028250778295 0.1635788186176346 3.4192532797212403 158 160 147
1.197686721915014 0.1654767731106274 3.435862571779855 166 167 161
0.142310117015938 0.2101620265371262 3.151564745052505 174 175 169
1.187799836316835 0.1923237353660375 3.453746622370504 24 23 19
-0.4981817996472724 0.2394486147891431 3.131117711269968 13 12 20
0.4821321289650183 0.3495195718386938 3.2389411135010113 22 22 12
0.5169857060871274 0.3548306281535319 3.2560701049732095 172 171 166
0.1923682553009512 0.1006496395959377 4.214528959455601 65 48 38
0.2505070754203071 0.1252200432965532 4.141503350453023 165 158 140
0.879436063208883 0.4393334815543521 3.330186452944012 23 22 20
0.5874506770956713 0.4428221673650877 3.233560904503162 24 23 19
0.8837536352956249 0.450352560204948 3.315819021823841 170 166 165
0.8626877789263722 0.4546609136071624 3.334625174049213 41 37 34
0.1807208618743996 0.1575472265655177 4.204115271560827 76 59 43
0.2847293154713076 0.4404046459200265 3.204691657008002 172 173 168
0.0749548071653637 0.1500736904788011 4.420321454666617 31 21 19
0.2082768005054673 0.2538578055762988 4.164300429315696 27 11 0
0.6664232050797112 0.595066160181003 3.1869412031085793 30 41 27
0.6963917323632343 0.6025959784646897 3.244216926875697 131 119 107
0.8349206762602108 0.5586379496122627 3.4630036695267727 35 18 10
0.579837159749549 0.6171253713744441 3.1679876317015574 13 20 12
0.4593328354366031 0.6154604735964861 3.165357438443667 146 133 125
0.778255714110512 0.6145196689090435 3.3040451297225935 161 139 125
0.5229362403428335 0.653374567151092 3.1510080280252613 30 17 9
0.2009618719131798 0.6349376368169429 3.170570344201928 151 133 119
1.3266695765626664 0.4471574898554257 4.531067987835161 33 37 40
1.3413196383152757 0.4855594749979129 4.409043172018622 50 46 45
0.8963744236230753 0.6365343222267398 3.674326782199862 36 18 4
0.8034313176177887 0.6535946290114476 3.5936273063106077 41 27 16
1.3799857786255934 0.4912300246163503 4.453903844018587 47 34 28
-0.0381384962756886 0.2742545894187643 4.514627705454434 36 18 14
1.0275500388113397 0.6593822888137297 3.708047237624009 34 16 2
1.2168602043314696 0.70416963733344 3.7447636002699616 143 125 105
0.1541889932567018 0.7913455927815736 3.0520665060152967 33 14 0
0.5842800134961292 0.7947667796498975 3.25946721728693 160 144 129
1.1443659539745275 0.7864498978163844 3.6788138723888797 145 134 128
1.2777722553824227 0.5679874904164416 4.497254506273347 42 30 32
0.7206563556047644 0.8190434269736853 3.37621319113472 26 7 0
0.1448600751173319 0.784273186499891 3.2060814963015782 13 15 10
0.6507828474300471 0.8522613392208678 3.3102858005500617 126 109 101
0.9929758852563111 0.7209638019213171 3.961801171456803 43 25 13
1.063894303760764 0.5294613681001131 4.836062527928037 45 31 30
0.2707467359529527 0.94466127579853 3.066268359757518 24 19 15
-0.4823795261377443 0.464827677166705 4.215667479012194 50 33 26
0.028586679950299 0.9366241700147953 3.1594158909664296 80 83 100
0.0011391071811362 0.827975539454927 3.812349785941094 143 116 95
-0.1323675659920368 0.7211585342252352 4.162282045034773 17 15 16
-0.304819959912222 0.710508598636287 4.17712252998537 30 19 17
-0.8399960982293123 0.965715780820458 3.2495170357915693 182 184 183
-0.1854098608728399 0.5352441177647159 4.981485165643567 32 21 17
-0.1669457249567589 0.4736262424552226 5.217377033702353 130 113 105
-0.8925382269623833 0.8811708990654613 3.6819868315657174 88 63 56
-0.9479098185063901 0.4926309753492045 5.3305608180886965 101 105 142
-0.7700169472001489 -1.2332070551266237 4.127974860675919 22 28 16
-0.6724269683403973 -1.2048477630314278 3.7322031110285177 161 171 170
-0.6665022491377237 -1.1950307491167071 3.705040651318391 179 186 168
-0.7944182309383876 -1.2139133410835927 4.244549082983166 36 47 30
-0.632951214638387 -1.1496280116622215 3.6127036570624864 18 36 10
-0.5942167038839106 -1.1336607843719637 3.6270006910552715 180 180 172
-0.5881217880661205 -1.1408478064482521 3.6857387175628404 18 16 17
-0.6039680201123293 -1.1307439812796358 3.616048496200446 44 46 41
-0.7135193159080991 -1.1606889218980874 4.089308706306222 173 175 170
-0.5613368971871386 -1.1073409479225254 3.6723045562810825 177 178 170
-0.6066685658669313 -1.0608644120379396 3.497913263581744 19 31 21
-0.8224838425610344 -1.151425786576247 4.469630577667307 33 38 31
-0.5461551984334243 -1.0782737226709844 3.5791661387618867 34 30 27
-0.7730666619144227 -1.105074714922899 4.293894048688767 164 162 150
-0.5406013552331931 -1.025638944548945 3.4344489330412045 30 29 34
-0.5158294383960825 -0.9863877996811582 3.410197606977383 181 182 174
-0.5386044396989735 -0.9343354459252518 3.3774035950077366 33 32 28
-0.4795189648246245 -0.9355285778753786 3.3622282491553968 179 180 174
-0.5163492561567674 -0.9237092234745004 3.2789840441962546 157 158 140
-0.8300159119665415 -1.0617205256731355 4.659775436499545 23 30 22
-0.8385524021013793 -1.072419486804751 4.655314227708932 158 169 171
-0.512693850603659 -0.8951284466048548 3.2603616142471146 28 34 22
-0.814343847831347 -1.0528954450674155 4.676207966789582 85 125 114
-0.4861891676083914 -0.8493789449853355 3.2068329856286426 171 173 160
-0.4886371808146805 -0.832606353640119 3.2094558294505298 21 33 19
-0.4857911250784808 -0.8213313596514595 3.1941308578846064 164 172 157
-0.444721243306866 -0.8334243749605844 3.2445682376551956 165 163 148
-0.4647749781924831 -0.8074188711324906 3.2167737695048126 29 27 28
-0.4313946861941232 -0.7813177146854933 3.194203113939779 182 181 177
-0.7280838975151249 -0.8169524380024235 3.7970308350150135 41 38 33
-0.4243393572562427 -0.7483403459101211 3.2236851141887994 182 182 180
-0.4484716833359484 -0.7391962660869819 3.178384363067809 62 58 59
-0.834377615962795 -0.9488879361547065 4.848298773758967 16 27 19
-0.3710125761989496 -0.6732910481471083 3.1433482972633784 169 166 161
-0.4210890549947466 -0.6575833368822162 3.0936946918014256 167 179 157
-0.4139123004258334 -0.6428438951998224 3.094567458177474 17 26 9
-0.391085428322456 -0.6170948576169357 3.065953473117526 161 174 156
-0.3920441474664264 -0.6000782987556287 3.0709046303944425 23 35 25
-0.7866325656077858 -0.8906173292627686 4.957602819395221 193 203 204
-0.7858826243955847 -0.8736328424799262 4.921503332209538 30 50 57
-0.7834811247089114 -0.8803593076590716 4.963329648469408 17 27 28
-0.7858674972753837 -0.8594825542614102 4.927387609772742 204 205 225
-0.7949251022975885 -0.8582649848929871 4.9487943802312895 17 21 24
-0.8046364136535018 -0.8543407779094101 5.005892833915587 199 206 214
-0.792357401019401 -0.844423071214291 4.947596618652412 187 193 209
-0.7870166889214049 -0.820699410613984 5.0251438988856 70 121 104
-0.7905531443839299 -0.8191105890165249 5.039691733714095 27 32 25
-0.8120458403601994 -0.8067882970371512 5.017770243408492 18 18 20
-0.6098949194864641 -0.546361112599811 3.6391462557862972 166 170 169
-0.3090294283468777 -0.4288081298312856 2.9829756378039165 168 175 167
-0.7812953724059579 -0.6096970984510113 4.112191310873997 171 172 167
-0.3015143711413473 -0.3985750222809488 2.980545588613795 12 22 14
-0.2967808889823083 -0.3733495939665026 2.991561135453715 10 23 14
-0.7427009410543262 -0.7484677934628035 5.1128566089790795 38 51 42
-0.7559876023247221 -0.7360416223331852 5.1165804612062225 89 136 116
-0.77371445824179 -0.7103562818244065 5.1252923186309145 17 23 19
-0.831855024832882 -0.4978503146350436 4.189126618589898 171 172 164
-0.6414985050254493 -0.3710574436798225 3.600953794717724 156 156 144
-0.6603592828756172 -0.3625721958919066 3.5774863872835887 22 23 18
-0.6719217044183725 -0.3072002764453192 3.5826129364626373 173 176 169
-0.6865543368274037 -0.2835967525848727 3.6023137945480155 150 154 140
-1.220946279474422 -0.2901832481370057 4.119513470107003 173 174 166
-0.7346053166892385 -0.1670010850996091 3.6531850695277863 172 175 166
0.1303267498836218 0.0295984212388697 3.233209260230883 15 14 10
-0.0031762508663393 0.0891645622835698 3.0503012783216996 176 175 170
0.2056301581033287 0.0550158665319872 3.3158515437788196 27 24 15
0.4021975208266447 0.0782450504291948 3.3776344585696787 170 170 162
0.5421110736527324 0.1081995452260543 3.375448010443236 170 170 162
0.1286334870736961 0.1571960814548999 3.1615347804933975 22 18 9
0.2298044115141492 0.119322756843535 3.3065654093850823 23 19 18
0.3513209198047056 0.1328766040280954 3.3243140818373957 27 26 21
1.2078636939960545 0.1403250881861796 3.43980395745889 164 166 155
0.5070188794428523 0.1536358934754548 3.33952278847367 173 174 168
1.2084014929911873 0.1715240248260076 3.43583894032168 167 168 162
1.208779802111172 0.1765994693001966 3.4997066493277105 31 30 25
0.2194327264583743 0.1755996917230981 3.264657942396319 29 25 13
0.274703607980202 0.1775189879193712 3.3022521557342737 170 171 163
1.112777520210269 0.1783356990617041 3.508930599848471 169 169 161
0.5963497279893387 0.1972478980852722 3.3367347101515725 24 23 19
0.3779527832032956 0.2023557661628591 3.3063634461816327 13 12 8
1.1768227396546114 0.2114744042156375 3.4585231735486985 162 161 143
1.1625590286980974 0.2141621399112281 3.488348234530958 35 34 30
0.2113585145441911 0.2337485675716253 3.219056078342949 28 25 18
0.2354473947683362 0.0169681025445227 4.09282498647153 33 33 21
0.5514990567536675 0.2419196518788257 3.299023141948937 18 17 12
0.5970854722553237 0.2638491938785701 3.3107228149902195 20 19 14
0.2516879809547905 0.0271536358562867 4.157316249401831 26 21 15
1.0982738604450621 0.2564277782146866 3.5434250933480564 24 22 9
0.2457160153730406 0.3016052145435978 3.232363828272522 166 167 153
0.9863949764566814 0.3311923111803134 3.3174778340684794 35 30 26
0.316442842272549 0.3089677264536904 3.2661353539248883 175 174 169
0.367337550494414 0.3138713875504057 3.274483219043946 176 176 168
0.2825554948590797 0.0884035383067401 4.11182412872415 10 8 9
0.9920655677655319 0.3450572330173859 3.3334675034947425 28 28 20
0.3100405110268058 0.3181800034307739 3.2502783436470573 25 23 8
0.9466244717369076 0.3627786793884092 3.2964829494714003 162 163 155
0.2840310031118834 0.0971708120103515 4.1270527691537175 162 159 144
0.1745000856105851 0.1034935724778351 4.09242293962812 32 29 22
0.9294317434350832 0.3753441927384718 3.3090159676090622 23 22 18
0.6745650772098027 0.3691394615798339 3.2689175875912686 14 14 12
0.4754244959367721 0.3618278183070142 3.247746289353655 175 174 170
1.0752628303553546 0.3223622456063239 3.5829131455666103 36 35 30
0.8808256764959804 0.3926970344485616 3.271120864372437 98 97 92
0.2090495695475048 0.1107166156903247 4.137207431346052 39 38 34
0.9965768181726575 0.3832202206112513 3.4020400109163873 24 23 21
0.2496181873293498 0.3770175660843856 3.20422866309294 20 20 12
1.0163987913281707 0.4025561328253874 3.3680201071538622 167 166 162
0.2822766302644747 0.3828488139655143 3.2227500509599407 19 15 14
0.3601997452123539 0.3892203204508914 3.244988894528605 20 21 16
1.06318427111588 0.4161398202577862 3.3812873266080175 164 167 160
0.5580396008549716 0.431033957194429 3.1862546857927385 18 15 6
0.4273045948661894 0.4139921271361686 3.2258034944422342 174 174 164
0.2361736137821741 0.1380667545672169 4.198279926142118 156 139 121
0.5189262071987634 0.4351890375199623 3.2201519751356793 139 138 133
0.8889928603510512 0.4422548113180885 3.3258793485349645 26 25 23
0.6107998882886944 0.4733246751952677 3.2031822613578065 28 27 23
0.9423154949444887 0.4820319819038219 3.3388555848458683 151 137 128
0.2261371749442374 0.2029226228084512 4.130179538245862 20 11 2
0.7925586042540561 0.4732779898960118 3.3546553149386837 151 139 123
0.1421247199015886 0.169338261509947 4.276383769386839 47 33 33
0.1251099732627217 0.1806998129614938 4.271592617757363 157 140 122
0.215245632296674 0.2352724383759977 4.1207602725328645 156 134 120
0.8765325280485418 0.5057374340104626 3.418686807401396 43 25 13
0.7624339449710138 0.5246853921908505 3.2853228035708275 91 78 61
0.4066037703890111 -0.1457603038543118 5.6442127043124835 31 28 59
0.4378492096287094 0.5341599981235546 3.190392382301615 151 134 118
0.2105054862134104 0.2402796250243861 4.1529953812464555 164 151 142
0.7288739678762681 0.5458333819006522 3.2754753136649857 76 60 34
-0.2708863186808644 0.4922961287097325 3.083139843650487 12 14 11
0.2075140149126529 0.2702728665377761 4.136819313314582 31 27 24
0.85206026362442 0.5784148407071509 3.305523505221925 74 60 51
0.5449403375447379 0.5791271355309185 3.1752535997081517 153 137 124
0.8736482212448171 0.51094630983668 3.5653067571668244 36 18 16
0.8359817350862938 0.5590043000160511 3.462546832997992 35 18 10
0.7754244981086428 0.5822156148569958 3.3598623052694845 30 16 7
0.6947637932429369 0.6200443157173455 3.202668149314674 153 136 126
0.0788168173199765 0.2529047074106517 4.343930763476335 169 147 134
0.3063384159543981 0.6340137533185283 3.1509514758438733 162 146 123
0.4032259965520747 0.6666879989700394 3.1542154405217926 144 128 103
0.6836069260015658 0.6862751960577507 3.1991074751725277 140 133 117
0.2947931312496748 0.6610995940330199 3.1495651210001943 160 143 127
-0.0531715429280303 0.2280943725271982 4.493176708055984 49 41 39
0.9181429395673396 0.5875662875366691 3.7203467202029605 34 16 4
0.6992184006702158 0.7091470154884822 3.233639307152663 40 21 14
1.3138104135066 0.4422341677965387 4.466653609571256 58 58 56
1.0422759399761763 0.6092207205326181 3.7597502423751274 44 26 12
0.6187293591485673 0.701524570700271 3.2614184231243537 153 136 120
0.3037724638889275 0.3890601655079983 4.184074077950601 158 136 115
-0.0275031016729532 0.2567226589082132 4.480511868029491 31 23 21
1.3354175255479308 0.4394911220847168 4.512637601853068 151 138 129
1.1983143631413042 0.6389607710716668 3.7607167523619283 142 132 122
0.6221256491136623 0.68510345046679 3.325082665490529 36 17 10
0.3346662951752267 0.7041777089682608 3.1289746447519478 150 131 117
1.2612075854989881 0.4663570443308612 4.384393540930557 150 143 135
0.9622362435061314 0.3990889167745607 4.516172446334797 154 139 134
1.354780779064822 0.4601204420224503 4.501623319568278 29 20 21
0.9582116644626145 0.6445103100559036 3.6897888259834537 23 10 4
1.5694892062576407 0.5318374241187827 4.403654903691577 47 34 28
0.607856029788315 0.6907816919284383 3.40066802964177 41 25 12
1.1020761838651054 0.6669905564971008 3.722472748831056 32 13 0
0.7624953700802897 0.6746776506445061 3.5303373780856933 34 11 3
0.8555894555548172 0.6695339734461463 3.6226122058171213 22 8 7
0.6546133234376927 0.6996240599503531 3.4490912507624785 30 12 2
0.3903625507216596 0.7381772069066821 3.2262563043753385 76 105 85
0.4221327883747348 0.7631201782869909 3.1383401007410394 17 14 0
0.9547510815658551 0.7025319037353356 3.648325584481008 142 123 106
0.9239442225442688 0.6896768766439932 3.6419703260107004 27 15 17
1.3034051410008212 0.7334348779752883 3.7036312239751914 151 130 111
0.6358075119226756 0.7759640243184706 3.256670243393211 157 130 109
1.4655222515108746 0.5937369972310832 4.281817543759633 17 17 17
1.2397017016907377 0.7325221048073021 3.699889098748467 162 139 133
1.5173143520713992 0.6338867796217128 4.218862684311056 31 32 34
1.4080973310364804 0.5562668323419746 4.450756878642514 21 21 21
1.5356927329882097 0.5661535852475831 4.477526909592625 28 24 23
1.4809965968912697 0.5370903822589005 4.56941950776085 11 11 11
1.4154180190979726 0.5331975979006022 4.5469119637895945 17 17 17
0.5659706436814851 0.4551636625347213 4.378125402637838 157 140 132
1.5381884807288055 0.5807006242680511 4.458742472784263 150 143 137
1.3902320380642192 0.5689556090849137 4.440308898676429 151 140 136
0.1655059505713343 0.738587583077511 3.2452022526468958 18 18 18
0.1565520278689343 0.7925182069564034 3.0707826387676893 140 130 105
0.9423959719211854 0.7803892854641326 3.4902691329525584 159 136 122
1.2437078622406978 0.7535426214526613 3.767360046382341 7 7 7
1.1711338691636548 0.6616276775490051 4.05662143708965 29 16 10
0.7717491564749617 0.7890335073646864 3.4160167352806763 40 23 15
0.578148908643053 0.7950613577454472 3.338865615264091 27 13 2
0.5225962798980363 0.8202207273177073 3.2459596166521054 30 17 9
0.6450031226431958 0.8057626640736888 3.3577848562672794 28 10 0
1.1314626181895684 0.6266724910225439 4.2535314728268006 32 18 18
1.2187908790890598 0.5606581644211798 4.543778895897334 56 44 44
0.2986101254289236 0.7817767603908723 3.3145608178009196 151 136 113
0.5281729711916251 0.829939521626637 3.2997243388108286 36 18 6
1.128185408284807 0.6411999717026121 4.241022985682866 137 117 110
0.5786372177127763 0.8743504645584987 3.192134914631985 155 137 115
0.6435381236908891 0.8499550871341149 3.3384721140681948 24 22 27
0.9416293463789541 0.854724765966874 3.482848861674704 10 10 10
0.3029218443044132 0.8222844243928421 3.2307819207849726 15 26 18
0.5385639086916374 0.8830588543145166 3.2000173887316006 156 138 128
1.049507412887178 0.5782057358467498 4.5710528677461335 41 28 22
0.9080910703963133 0.7227529168988382 4.018494837240461 38 25 19
1.0490540108872644 0.5663252782774385 4.646816378034874 43 30 24
0.9926663822296234 0.5787565091946122 4.601099589446549 46 38 36
0.5096919430739318 0.561657486425649 4.454927121425559 129 106 88
0.5995236272400772 0.5545650244499387 4.545047254798383 127 105 91
0.5658700146682056 0.5966502165523587 4.43430042555272 54 36 34
0.5820956700331685 0.9564339659573311 3.2732212352213366 104 97 89
0.0606060151656978 0.9174011281818196 3.139460025159962 142 123 109
0.6731297219687367 0.6135205554805224 4.523434140447835 123 102 97
0.6644609695623583 1.0587088440582166 3.2706632044273096 56 39 29
-0.2189712395435671 0.9425868363035314 3.1336163294809385 37 30 72
0.42308363030073 0.5576318604845636 4.754692374596663 137 111 96
0.6143751928506723 0.5152842228323624 5.046236390041425 34 19 16
