ply
format ascii 1.0
comment Created by Open3D
element vertex 764
property double x
property double y
property double z
end_header
198 10 282
168 10 244
221 10 316
142 12 209
175 13 255
206 15 296
230 16 325
103 15 169
183 16 263
80 17 138
150 19 218
193 19 277
92 20 150
123 20 193
161 20 232
35 21 73
215 21 307
64 22 122
134 22 203
169 23 244
98 25 159
200 25 287
72 27 132
177 26 256
223 28 317
107 28 173
9 30 36
12 29 41
31 30 65
84 30 142
117 29 186
154 29 223
186 30 268
208 31 298
124 31 193
39 33 76
162 32 236
93 34 152
136 34 207
64 34 122
171 35 249
235 37 328
9 36 31
103 36 164
194 36 279
42 38 87
110 38 178
216 38 309
51 38 103
145 39 217
178 41 260
5 40 22
30 42 63
205 43 294
83 43 142
164 45 240
40 44 75
128 45 198
187 46 270
95 46 154
17 47 45
227 47 320
7 48 23
136 48 208
209 49 300
23 49 53
35 51 69
75 51 134
170 52 248
53 51 99
195 52 281
157 54 231
236 53 327
86 54 145
121 54 188
182 56 266
61 56 114
220 59 312
20 59 44
130 58 200
165 59 242
205 60 294
27 60 56
47 60 90
71 59 126
104 61 165
190 63 274
55 63 103
115 63 178
173 64 253
228 65 320
248 64 334
44 67 85
147 66 222
124 67 190
211 68 303
158 68 233
52 71 97
63 69 113
197 70 284
96 69 157
131 70 202
17 71 26
180 72 263
239 71 328
28 71 57
84 74 141
165 74 244
139 74 211
219 76 311
34 76 71
117 75 183
152 79 228
205 78 294
43 78 85
68 79 118
188 80 271
126 79 193
23 80 46
98 81 160
249 82 335
49 83 92
229 82 320
108 84 171
158 83 234
28 84 58
212 86 303
33 87 73
60 86 104
142 87 213
196 87 282
167 89 245
19 89 31
180 90 262
104 92 168
242 90 329
127 90 195
76 92 128
150 92 225
221 92 313
28 96 57
207 95 296
134 96 205
190 96 273
94 98 153
161 99 237
251 97 334
61 98 105
233 101 323
142 100 215
69 102 118
214 102 305
42 103 83
200 105 286
53 104 98
100 105 163
127 103 194
182 106 264
168 107 247
60 107 106
112 108 173
150 109 225
223 109 314
22 110 31
118 110 183
176 113 257
26 113 51
193 114 277
41 115 82
145 114 219
52 114 96
77 114 131
104 115 165
254 115 335
58 120 104
62 118 109
34 121 71
86 118 144
215 120 306
113 119 174
186 123 268
200 121 287
248 124 332
96 121 155
46 123 88
27 124 47
119 125 185
225 126 314
45 131 88
53 126 99
66 129 118
80 125 135
33 125 63
246 126 330
63 128 113
208 128 295
26 130 35
194 130 276
256 131 337
31 132 57
143 130 216
158 131 236
178 132 257
98 134 156
113 132 174
83 137 138
233 134 321
252 134 335
35 136 63
79 136 134
200 137 286
166 138 246
38 140 74
122 141 189
135 139 206
25 140 34
244 140 328
106 141 164
48 141 89
72 143 125
227 144 316
114 146 176
145 147 219
195 146 277
208 144 295
33 146 61
30 149 45
45 149 83
127 147 195
160 148 238
178 147 258
253 150 333
259 148 337
236 150 323
26 151 34
215 152 305
30 152 49
137 155 209
201 153 287
90 155 145
106 155 167
119 154 185
185 154 266
70 155 122
167 155 248
246 157 328
98 160 155
193 159 276
225 158 313
64 160 113
30 163 45
80 160 133
128 161 195
175 162 254
32 162 51
40 164 67
73 168 128
238 167 324
257 167 335
120 169 189
56 168 101
104 168 164
186 170 268
30 170 31
150 170 229
33 172 51
249 172 330
63 173 111
82 174 136
41 175 69
96 174 153
211 176 297
228 175 315
32 176 41
129 176 198
140 176 216
159 176 237
177 177 255
43 180 76
57 180 99
70 180 123
89 181 146
31 180 32
135 182 209
237 182 322
257 181 335
151 185 229
167 184 245
218 184 306
202 185 287
51 185 88
33 188 38
114 189 177
97 188 153
31 191 30
59 193 104
128 191 197
179 192 257
196 192 278
142 191 217
228 191 313
42 192 77
68 193 121
161 192 236
210 192 295
33 194 51
54 198 91
104 196 162
241 199 324
32 198 38
36 197 62
64 199 114
121 198 187
148 199 224
217 198 304
134 199 207
186 200 267
201 199 284
258 198 335
35 199 60
168 200 243
32 200 33
59 203 102
140 206 214
70 206 124
127 205 195
178 206 253
194 206 274
213 207 298
250 207 330
53 210 92
36 210 62
133 211 207
151 212 225
34 213 28
186 213 264
202 213 284
78 213 131
58 218 103
171 214 245
259 213 336
96 216 151
32 217 53
112 216 173
127 217 197
145 218 218
70 218 124
164 219 236
85 221 139
210 220 294
231 222 316
38 221 65
179 221 254
194 221 274
103 222 161
121 225 186
50 223 86
33 225 31
64 226 113
82 228 134
169 226 241
33 228 52
153 227 224
186 227 264
33 227 27
42 228 77
96 228 150
114 231 175
201 228 284
55 230 97
262 229 337
127 231 195
181 236 257
37 233 61
161 234 232
51 235 89
103 235 160
194 234 274
88 235 142
230 236 314
35 237 32
34 238 53
65 240 112
134 241 203
154 241 223
170 240 242
185 241 264
201 243 283
43 243 77
114 245 174
239 244 322
264 244 336
145 245 214
220 244 306
54 245 98
70 246 121
128 246 194
161 248 231
178 247 253
196 248 276
213 250 297
37 249 30
104 249 160
231 251 315
49 251 86
61 252 107
80 254 132
121 252 184
98 256 152
135 253 202
41 256 72
185 255 262
114 258 173
217 258 301
238 259 320
35 260 38
262 260 334
147 262 214
161 260 230
181 262 254
86 261 138
36 262 59
212 263 294
49 264 87
61 263 108
104 263 160
196 263 274
79 266 130
135 265 200
228 264 311
98 269 151
253 267 327
33 268 47
169 268 239
189 271 265
33 269 41
112 269 169
220 271 302
52 271 96
148 274 214
163 273 231
242 274 321
262 274 331
36 275 59
86 274 138
179 275 249
197 275 274
119 277 177
212 276 292
79 279 130
229 279 309
49 279 87
61 279 106
252 280 327
41 284 77
94 282 146
113 282 169
170 281 239
189 284 262
204 285 282
51 285 95
86 287 138
143 284 209
219 285 300
163 287 231
105 287 159
35 287 58
181 288 251
237 290 317
257 291 329
76 291 125
197 292 271
212 292 291
32 293 42
234 296 312
110 294 164
153 295 220
231 294 308
55 298 98
171 296 239
252 296 325
68 297 115
127 297 187
144 298 211
87 301 138
188 299 260
220 300 299
36 302 61
162 301 229
102 302 156
238 302 316
45 302 81
60 303 102
136 306 202
77 305 127
119 304 177
197 305 269
114 310 168
150 308 218
212 307 289
39 309 70
53 309 93
168 309 235
126 310 185
66 312 112
85 312 135
203 314 276
219 314 297
239 315 316
46 316 80
62 318 105
118 316 174
194 317 265
78 320 125
151 321 220
32 320 39
93 319 143
112 320 164
170 322 239
211 320 285
38 322 66
124 324 180
251 324 324
204 325 277
142 325 206
159 327 228
46 329 81
82 328 131
61 330 103
119 330 173
80 336 128
258 331 328
151 335 219
30 333 40
212 332 286
39 334 67
94 334 143
113 334 162
232 337 307
248 337 320
34 338 55
185 338 255
157 339 223
45 340 78
102 341 150
120 342 171
178 342 244
74 343 121
237 344 312
261 344 328
31 347 38
113 346 159
214 348 285
95 347 140
149 347 215
189 351 255
52 350 90
129 352 184
250 350 320
35 352 52
36 353 26
66 351 110
203 352 270
45 352 78
141 353 202
241 354 314
253 352 322
84 353 130
101 354 147
121 354 169
160 354 222
60 354 100
179 355 240
219 356 291
263 356 327
198 359 263
132 359 189
34 359 34
153 362 214
40 361 63
229 359 304
113 360 156
255 364 320
168 361 228
51 363 86
67 363 108
30 364 19
128 363 177
144 366 203
106 367 148
36 366 49
160 365 219
218 366 290
241 367 312
46 367 75
121 367 166
181 369 239
76 369 117
135 372 193
98 371 138
260 370 323
32 372 32
132 371 187
213 370 282
152 373 210
114 373 156
40 375 64
168 374 224
189 374 249
227 374 298
52 375 85
250 375 317
64 377 101
127 377 178
141 376 199
29 378 24
49 377 81
36 379 46
88 379 127
163 380 218
182 381 238
205 379 270
24 379 13
45 380 72
121 380 166
220 380 290
237 381 308
262 382 322
33 383 38
78 383 115
133 385 188
172 387 227
255 384 320
40 387 62
30 387 32
114 387 153
189 389 248
229 386 299
51 389 81
31 394 29
141 390 198
22 392 14
26 391 19
69 391 105
105 391 141
163 393 216
221 391 290
87 391 123
36 392 46
45 394 70
120 395 163
182 395 236
254 396 320
77 397 111
132 397 186
172 399 225
231 401 302
40 401 60
113 401 150
25 404 18
69 404 103
139 403 193
36 407 47
85 405 118
159 405 211
180 405 233
238 406 311
125 405 169
22 405 15
46 408 69
62 408 92
212 409 280
118 409 160
131 410 182
32 412 34
41 412 59
227 412 296
171 412 222
126 413 173
250 413 318
27 418 21
140 414 194
50 416 76
161 415 212
200 416 262
88 418 118
181 419 231
217 417 284
104 419 136
24 418 14
36 420 44
47 422 69
197 421 254
255 419 321
62 421 89
213 423 276
133 422 183
149 422 201
173 425 221
250 424 317
246 424 313
79 425 107
96 425 126
112 425 147
187 426 240
126 426 168
142 429 192
71 431 97
86 431 115
195 431 251
105 432 136
211 432 274
119 433 155
132 434 179
248 435 314
62 436 84
151 436 200
171 437 218
186 437 237
79 437 106
37 440 52
165 443 209
257 440 321
53 442 74
141 440 187
69 443 95
128 442 168
25 445 15
86 444 113
106 444 133
197 444 249
206 446 261
120 446 154
213 446 272
226 446 289
33 447 40
45 447 61
131 448 176
62 449 83
205 451 258
248 451 317
78 450 104
96 450 122
253 450 320
115 451 140
234 451 302
27 453 26
69 453 95
53 454 71
183 456 227
203 453 256
87 457 118
217 457 272
119 458 146
83 457 111
229 456 291
23 456 10
107 458 133
224 461 284
230 461 292
188 459 234
202 461 251
222 460 279
254 460 323
