ply
format ascii 1.0
comment Created by Open3D
element origin 1
property double x
property double y
property double z
element voxel_size 1
property double val
element vertex 2183
property double x
property double y
property double z
property uchar red
property uchar green
property uchar blue
end_header
-0.0691164 -0.221073 0.925136
0.001
164 302 231 109 110 110
195 303 267 59 56 59
195 303 269 79 77 79
229 386 299 45 46 47
196 303 270 73 71 73
50 163 89 97 97 99
197 303 272 67 68 69
234 303 314 90 89 89
34 301 53 140 142 140
36 301 60 113 112 115
119 302 176 58 58 61
137 303 200 77 77 79
137 303 201 96 96 99
60 180 107 114 114 115
266 272 333 142 143 142
138 303 202 114 115 117
155 303 223 97 96 98
156 303 224 76 76 78
158 303 225 108 109 110
54 78 100 71 71 71
163 303 230 97 98 99
164 303 232 99 98 100
196 303 268 58 56 59
197 303 270 62 62 63
29 165 30 147 148 144
233 303 314 103 102 103
34 301 51 148 149 146
36 301 61 136 137 137
156 303 223 63 63 65
195 303 266 61 59 62
197 304 269 84 86 87
207 304 285 150 149 151
234 304 314 84 85 86
242 304 320 113 114 115
35 302 58 131 134 135
205 133 291 116 118 118
35 302 60 58 60 60
206 373 273 148 147 151
132 303 194 138 138 138
133 303 198 43 39 42
163 304 231 128 129 131
165 304 232 82 82 84
100 316 151 144 145 147
18 404 12 152 151 151
195 304 266 85 84 86
196 304 267 52 51 54
62 183 112 124 124 122
36 302 59 124 127 126
145 218 217 122 125 127
36 302 62 89 89 90
37 302 62 115 114 114
87 353 134 138 138 141
77 303 128 130 128 131
118 304 174 78 81 83
118 304 175 104 109 110
119 304 177 94 98 100
132 304 196 137 136 137
166 304 233 106 105 107
193 304 265 146 146 147
194 304 265 139 138 139
242 384 314 94 93 94
196 304 269 59 61 62
226 305 306 82 82 83
33 123 67 137 138 135
58 29 115 124 124 124
232 305 312 82 82 84
148 438 196 138 139 139
232 305 313 77 77 79
243 305 320 147 147 149
206 178 292 78 78 80
244 305 321 99 99 100
244 305 322 107 107 108
117 304 174 61 64 66
185 139 265 63 62 66
166 304 234 150 148 150
181 304 248 83 84 86
193 305 264 73 72 74
105 432 134 53 52 54
195 305 267 86 88 90
196 305 269 68 71 72
30 375 27 134 134 136
231 305 311 118 117 119
32 279 50 50 50 50
245 305 322 96 95 96
228 334 304 80 76 79
37 303 62 81 83 82
36 257 38 99 97 100
133 209 206 126 125 123
37 303 63 85 86 87
132 305 195 111 110 111
136 372 193 124 124 127
165 305 232 129 129 130
45 326 80 96 92 96
166 305 233 86 86 88
192 305 264 74 74 75
193 305 265 62 63 65
231 306 311 65 66 68
232 306 312 98 100 101
259 305 330 108 110 111
84 442 112 151 151 151
96 21 153 64 64 67
37 303 64 118 118 120
195 305 265 70 72 73
36 406 45 89 91 91
196 306 268 124 126 128
37 260 34 67 69 68
197 305 270 113 114 116
225 306 305 145 145 145
244 306 321 105 105 105
38 165 63 103 105 102
246 306 323 83 81 82
37 304 63 93 95 95
37 304 64 76 77 77
37 304 65 75 76 77
43 304 77 63 63 64
44 304 78 83 84 84
130 305 195 146 145 146
131 305 195 132 131 132
133 305 196 67 67 69
133 305 197 51 52 55
133 305 198 46 49 51
135 305 201 97 98 100
57 228 101 130 131 133
150 306 219 53 51 54
151 306 220 104 103 104
167 306 233 112 112 113
167 306 234 107 107 109
67 431 92 84 82 84
192 306 262 104 103 105
36 263 58 100 103 103
192 306 264 65 65 67
258 306 329 121 121 123
38 304 65 108 108 110
130 306 194 86 86 87
131 306 195 69 70 72
134 306 199 107 112 114
135 306 199 108 113 115
76 152 129 102 102 104
171 306 239 87 86 88
172 306 239 85 84 87
191 306 261 112 110 112
198 306 271 89 89 89
230 307 310 61 61 64
248 307 324 83 81 84
195 370 257 74 76 78
249 307 324 82 79 81
242 380 312 135 138 138
191 79 273 46 42 45
38 304 66 112 111 113
102 163 159 115 116 115
42 304 74 131 131 131
232 136 320 53 49 54
42 305 74 88 88 89
42 305 75 63 63 64
43 305 76 80 81 81
206 173 292 127 127 127
95 306 148 111 112 114
124 306 183 113 113 114
120 196 187 131 130 132
190 307 260 91 90 92
191 307 261 79 79 81
198 307 271 75 75 76
33 242 41 117 117 115
199 307 271 84 84 85
129 411 178 94 89 93
37 305 63 150 152 151
37 305 64 123 125 126
37 305 65 90 91 90
38 305 66 67 68 67
41 305 72 128 127 128
256 224 334 145 146 146
41 305 73 98 97 98
42 305 73 138 138 138
108 306 164 57 57 56
136 307 201 112 112 113
32 319 38 144 145 141
135 421 183 102 100 105
137 307 203 88 88 88
167 307 235 138 136 138
38 356 59 59 59 59
168 307 236 60 57 60
169 307 237 48 45 47
170 307 237 57 54 57
171 307 238 60 59 62
171 307 239 76 76 79
197 188 282 95 95 98
172 307 239 110 111 114
249 307 323 62 58 62
187 439 237 125 129 125
250 307 324 66 63 66
36 337 26 91 94 89
250 307 325 103 100 102
38 305 68 117 116 117
130 307 194 94 95 97
168 307 233 147 147 147
229 308 307 68 69 71
37 431 41 52 49 55
231 308 309 85 88 90
249 308 323 66 64 67
71 180 122 81 81 80
123 307 184 65 64 66
128 307 191 150 150 151
192 435 243 145 149 146
169 308 236 55 51 54
47 339 83 134 138 138
171 308 238 103 103 106
189 308 260 76 77 80
190 308 260 92 92 95
248 308 322 87 86 88
38 306 66 123 126 123
40 306 72 66 65 68
129 308 193 127 129 130
168 308 236 64 60 63
169 308 237 51 48 51
260 127 340 82 82 80
201 308 273 110 110 112
248 309 323 74 74 77
157 458 197 135 135 136
134 393 189 55 50 54
249 309 323 59 59 62
250 309 323 63 63 65
224 298 303 100 102 104
263 378 324 140 134 139
39 306 70 107 104 108
40 306 70 110 109 112
113 307 166 129 129 130
221 377 291 67 64 68
199 309 272 131 131 133
186 338 254 46 50 51
248 309 322 87 85 89
249 309 324 41 42 45
38 306 69 98 97 98
39 314 28 108 109 109
39 307 70 54 53 56
40 307 72 126 125 129
35 375 47 133 129 132
41 307 72 140 139 144
145 309 214 78 79 79
146 309 214 89 89 91
168 309 236 45 44 48
169 309 236 51 49 52
31 149 53 136 137 134
169 309 237 43 43 46
170 309 237 42 42 44
201 309 275 75 73 76
223 309 302 152 151 152
232 309 311 114 114 115
27 449 24 126 120 131
38 307 68 54 53 53
40 307 70 71 70 74
191 423 244 124 124 124
39 307 71 59 58 62
253 237 330 81 83 83
233 80 323 127 130 130
111 308 165 53 56 56
22 457 3 95 95 95
139 309 206 86 85 87
144 309 213 84 84 85
38 311 29 42 42 42
169 309 235 58 56 58
171 309 239 92 92 94
232 119 321 66 65 69
201 310 274 100 100 101
46 274 82 100 99 99
202 310 275 75 74 76
37 299 33 46 46 49
202 310 276 76 74 77
211 191 295 73 72 76
204 310 280 73 72 73
33 232 35 91 90 88
72 355 118 113 112 113
205 310 281 62 62 64
250 310 324 111 114 116
159 236 228 147 149 151
110 308 164 44 46 45
141 309 208 119 117 119
171 310 240 71 72 73
204 310 279 99 97 99
234 310 311 114 113 113
252 310 325 77 79 79
252 310 326 121 122 123
39 308 69 58 57 61
61 250 106 101 101 101
33 373 41 92 91 93
40 308 70 93 92 96
139 310 206 86 86 86
198 217 280 98 98 100
140 310 208 82 79 81
141 310 208 80 78 80
138 279 203 138 139 141
142 310 210 91 89 92
143 310 210 86 84 87
48 29 99 86 86 87
143 310 212 65 66 68
165 310 234 82 81 83
167 310 235 86 88 89
169 310 238 118 120 123
171 68 249 148 148 148
175 382 231 52 51 56
235 311 312 133 133 133
187 118 269 96 96 97
244 311 320 76 75 77
247 311 322 138 139 140
143 354 205 82 81 84
251 155 332 134 134 133
37 308 65 142 140 140
169 398 220 125 121 123
170 447 213 127 124 127
37 308 66 135 133 133
38 308 67 66 66 64
39 308 68 55 54 55
127 310 185 88 88 90
246 218 328 94 95 95
140 310 206 79 79 80
141 310 207 72 70 72
148 407 202 88 85 89
144 310 212 83 83 85
189 326 259 84 85 85
164 310 234 71 71 74
168 310 236 58 62 63
170 310 239 80 81 83
200 311 272 140 140 139
203 311 277 48 44 47
203 311 278 71 66 69
36 296 33 121 119 121
204 311 279 64 62 65
205 311 280 108 109 111
151 457 192 54 50 55
40 308 69 64 63 67
41 308 70 133 133 136
213 454 271 61 59 65
141 310 206 84 83 84
181 260 257 105 105 108
19 428 8 98 97 97
142 310 207 64 63 63
142 310 208 65 62 64
143 310 209 73 71 74
164 311 233 97 98 99
165 311 234 124 125 127
171 311 240 102 103 104
201 311 273 138 138 137
201 311 274 140 140 142
44 301 79 150 152 149
204 311 278 55 52 55
220 199 307 71 70 73
114 424 150 78 77 81
243 311 319 116 115 117
153 74 227 121 123 121
244 312 320 91 92 93
39 309 68 42 44 45
127 271 190 33 34 36
40 309 69 61 59 64
40 309 70 93 93 98
53 309 94 80 78 82
142 311 208 61 59 62
143 311 208 67 66 68
85 57 143 114 114 116
143 311 210 109 109 112
155 311 224 133 134 134
172 311 240 97 97 99
173 311 242 108 108 110
204 311 276 68 66 68
203 312 277 48 46 49
114 310 169 113 113 114
142 311 206 76 75 75
173 312 242 86 86 88
201 312 274 143 142 144
231 281 311 136 138 140
204 312 278 53 52 54
241 312 318 112 110 112
39 309 70 71 73 74
128 203 200 128 128 131
39 309 71 74 75 78
35 286 60 67 65 67
40 309 72 114 116 117
51 310 88 128 128 127
51 310 89 77 78 77
142 312 207 54 53 55
172 312 241 124 124 126
173 312 241 102 102 104
182 312 252 70 70 70
92 384 130 150 150 150
240 313 318 89 85 89
241 313 318 61 60 63
242 313 319 72 73 75
243 313 319 108 110 111
40 310 70 123 125 126
40 310 71 84 87 86
151 321 220 82 84 84
40 310 72 72 73 75
37 429 49 118 118 119
50 310 88 101 101 100
222 357 297 150 149 151
54 310 94 109 110 112
140 312 206 97 98 99
204 313 277 40 40 42
204 313 278 50 52 54
199 343 267 135 139 138
254 313 326 132 131 133
40 310 73 103 104 106
41 310 73 133 133 135
50 310 89 58 58 58
105 311 156 137 136 137
42 337 75 142 142 144
141 312 207 55 55 57
173 313 242 110 111 113
127 416 172 150 151 150
155 264 225 49 48 49
175 313 243 92 92 94
181 313 251 84 84 85
201 391 263 85 83 85
204 313 279 58 61 62
218 201 304 144 145 149
241 314 318 84 84 87
86 419 117 38 43 40
49 311 86 137 137 135
257 255 330 104 102 103
51 311 90 80 83 82
51 311 91 55 58 59
52 311 91 101 104 103
139 313 204 92 92 94
140 313 206 68 70 72
141 313 206 79 80 82
142 313 208 112 113 115
37 415 53 58 57 56
174 313 242 130 131 131
175 313 244 91 91 93
245 310 320 128 127 128
182 313 251 70 72 72
200 313 273 151 148 150
200 313 274 141 139 141
23 446 10 144 145 145
202 314 275 68 69 71
178 24 257 54 54 52
203 314 277 79 82 84
169 310 235 41 41 42
204 314 278 122 126 128
40 311 71 137 139 139
40 311 72 103 105 105
40 311 73 77 78 79
163 378 218 105 105 108
41 311 74 93 93 95
48 311 85 113 113 112
132 367 186 96 95 97
79 162 133 112 112 116
99 41 157 138 139 139
67 312 112 54 55 56
68 312 113 46 48 50
103 312 155 99 97 98
199 118 283 92 92 91
122 313 180 69 69 70
150 457 191 81 78 81
139 313 205 63 64 66
159 313 226 95 93 96
31 221 31 66 65 65
174 314 243 125 125 127
180 314 249 98 97 99
24 392 16 80 82 84
181 314 250 67 68 70
200 314 273 114 112 114
145 321 212 115 114 115
41 311 72 132 135 135
234 69 325 88 87 89
47 311 84 147 146 147
47 311 85 122 122 123
176 314 245 76 75 77
176 314 246 122 119 122
112 73 172 145 144 149
205 314 279 99 101 102
206 314 282 138 138 140
258 315 329 94 93 97
36 310 30 103 101 100
47 312 86 78 79 79
48 312 86 85 85 85
138 314 202 77 77 78
47 355 82 133 135 137
139 314 204 88 89 91
175 314 243 136 137 137
201 315 274 123 125 126
205 315 280 121 122 124
206 315 281 100 100 102
43 291 76 100 100 99
236 325 312 125 125 128
41 312 73 129 131 130
37 274 60 73 71 76
193 111 277 50 48 50
41 312 74 88 90 89
42 312 75 91 91 91
46 312 83 127 127 128
78 38 136 147 149 149
122 392 166 92 92 96
176 315 244 112 111 113
30 334 45 72 72 73
177 315 245 62 59 63
178 315 245 70 68 70
179 315 248 64 63 66
180 315 248 76 75 78
43 318 74 144 145 147
180 315 249 78 79 81
207 315 282 111 112 112
219 315 298 85 88 90
152 409 205 132 133 136
221 316 301 61 62 63
42 312 77 132 130 130
42 23 89 68 68 66
46 312 80 150 150 151
47 312 83 94 94 97
64 313 109 99 100 97
132 456 173 117 113 119
207 316 283 88 88 89
42 313 76 93 95 92
42 313 77 73 73 71
103 378 140 119 118 117
44 313 79 89 86 87
45 313 80 81 78 80
45 313 81 97 95 96
127 337 180 113 116 115
46 313 82 79 77 80
191 264 267 132 131 133
80 315 129 110 109 109
46 313 83 89 88 90
151 214 226 139 141 145
46 313 84 75 76 76
47 313 85 113 114 113
56 313 96 150 151 150
199 316 271 88 90 91
207 316 282 106 107 108
68 109 119 136 137 135
240 316 318 61 63 64
242 316 319 117 119 120
37 311 26 121 123 119
38 311 25 119 120 116
38 311 24 141 142 138
43 313 78 92 91 90
43 313 79 105 102 101
155 316 224 69 69 70
157 316 225 136 137 139
128 229 199 84 84 86
179 316 245 65 64 66
179 316 246 49 49 51
238 317 317 89 95 94
117 279 175 106 109 109
258 317 330 101 97 103
120 291 179 75 75 78
46 313 80 62 59 64
178 316 244 110 109 111
208 317 284 80 80 82
209 317 285 123 123 124
214 317 291 128 125 127
214 317 292 86 85 86
222 317 302 112 112 113
263 317 333 60 62 62
43 314 77 97 99 96
44 314 78 64 64 63
45 314 78 71 71 71
46 314 79 73 72 75
47 314 80 106 105 109
46 314 81 92 91 95
46 314 82 109 109 112
105 315 157 143 144 146
163 316 232 120 120 121
177 317 244 65 66 67
178 317 245 92 94 95
179 317 246 94 97 98
179 317 247 58 62 63
208 317 283 105 105 106
209 317 284 87 86 88
257 427 321 88 82 87
223 318 302 147 147 149
224 318 303 100 100 101
236 318 315 122 124 126
42 314 74 150 152 149
85 286 135 73 74 72
46 314 78 84 82 84
61 315 107 77 77 79
176 317 244 49 49 50
180 317 247 73 75 76
147 259 215 137 138 142
208 318 284 131 131 132
81 277 134 150 151 152
210 30 300 54 56 52
208 318 285 80 79 81
35 284 36 122 121 119
209 318 286 74 70 73
210 318 286 90 87 89
109 225 169 102 103 103
211 318 288 142 138 142
224 388 294 67 65 68
213 318 290 91 90 92
213 318 291 76 75 76
170 215 243 106 106 110
214 318 291 89 89 90
101 316 154 133 136 138
35 336 29 110 108 113
180 317 248 93 95 97
197 318 268 125 127 130
34 315 53 89 91 90
211 318 286 74 71 73
211 318 287 90 86 89
212 318 288 112 107 110
132 227 202 101 102 103
43 315 77 114 116 114
61 382 97 133 134 135
61 315 104 61 60 63
118 316 175 75 76 80
175 318 242 69 69 70
189 412 240 49 44 49
176 318 244 94 97 97
182 26 263 112 113 113
177 318 244 123 126 126
179 318 246 145 148 149
129 228 200 66 66 67
211 318 285 67 65 67
213 318 289 70 68 70
213 319 290 72 73 74
46 315 81 91 91 94
123 399 169 116 116 115
89 316 141 125 125 126
66 295 110 149 151 148
164 318 231 136 139 138
136 121 205 127 128 126
181 318 249 97 97 97
182 318 249 110 111 112
139 217 215 66 66 66
213 319 287 66 65 67
213 319 289 76 76 78
36 258 33 115 117 114
214 319 289 83 84 85
266 256 337 113 113 113
258 319 329 134 136 137
121 317 178 114 115 116
211 319 284 44 42 43
33 429 38 86 83 85
212 319 285 61 59 60
134 169 204 50 51 51
232 320 311 86 88 89
132 368 187 72 68 73
43 316 76 68 69 68
45 316 78 104 108 108
49 57 93 47 47 43
154 223 225 143 142 143
45 316 80 114 117 118
46 316 82 76 77 78
181 319 248 91 91 93
180 53 260 109 109 107
210 320 285 107 105 108
211 320 285 85 84 86
213 320 286 53 54 56
244 320 321 148 149 149
192 320 261 85 84 87
192 320 262 61 60 63
194 320 264 138 141 141
213 320 287 57 59 60
46 317 80 138 141 143
46 317 81 117 119 119
36 299 58 72 69 73
166 320 234 125 125 125
183 320 250 78 78 78
184 320 251 94 93 95
38 314 25 122 125 121
168 320 238 89 85 89
212 321 286 100 102 104
189 109 272 126 127 126
212 321 287 129 132 133
212 321 288 52 54 55
249 321 323 69 64 69
72 457 101 105 101 106
253 321 327 73 74 75
38 315 25 113 116 112
42 317 73 81 82 81
35 327 57 72 73 73
94 319 145 76 75 77
149 320 216 58 57 61
168 320 236 48 45 47
184 321 251 81 81 82
184 320 252 106 105 107
79 239 132 55 53 55
216 274 299 118 120 121
190 321 259 81 80 82
213 321 287 105 107 108
38 315 24 140 143 140
49 318 85 110 109 110
75 318 121 104 104 101
137 171 211 115 115 116
148 320 215 71 69 72
169 321 237 54 54 57
203 215 286 122 124 128
183 321 250 101 101 102
186 321 253 90 89 92
159 352 224 131 126 131
87 404 119 46 46 47
189 321 258 112 111 113
209 322 283 61 61 64
210 322 284 87 88 90
215 322 290 90 91 92
38 339 23 85 85 83
147 321 215 87 87 90
224 371 298 114 114 115
148 321 215 60 61 63
79 137 135 104 102 108
148 321 216 73 75 78
149 321 218 86 88 91
151 321 221 97 98 98
185 321 253 77 77 79
38 274 30 148 150 147
35 370 38 142 140 146
189 321 259 53 54 55
209 322 284 71 73 74
64 197 115 104 104 106
204 185 289 65 65 68
214 322 288 134 136 137
86 443 113 54 52 53
230 322 309 96 98 99
169 322 237 50 51 54
188 322 257 82 81 82
186 123 270 113 115 117
189 322 258 62 63 64
189 322 259 56 58 59
49 319 85 86 87 87
49 319 86 74 74 75
143 288 207 132 134 135
152 322 221 84 85 85
93 369 135 122 119 123
152 322 222 105 105 106
176 446 219 124 125 126
166 322 235 55 54 58
186 322 256 69 66 67
215 323 291 74 74 75
247 323 320 147 146 147
163 322 232 135 132 134
34 177 47 93 93 93
186 323 255 44 40 42
205 268 284 89 88 89
186 323 256 54 51 54
187 323 257 51 50 52
201 323 274 59 57 59
144 439 193 60 58 62
216 323 292 101 101 102
49 410 75 118 117 120
57 320 97 114 114 116
163 323 232 76 76 77
207 381 274 93 93 95
163 323 233 60 59 60
50 449 66 108 108 111
164 323 233 83 82 84
167 323 235 70 74 75
51 185 88 73 73 74
185 323 253 135 134 135
187 323 256 50 48 49
188 323 256 58 57 58
202 121 289 112 113 112
217 324 292 74 74 75
246 324 321 54 54 56
152 323 221 131 132 133
162 323 231 110 110 111
162 323 232 70 70 71
142 402 198 117 117 121
166 323 235 75 80 81
17 65 30 126 127 125
206 324 280 94 97 97
218 324 293 107 107 108
244 324 319 149 146 148
47 170 85 93 94 93
50 320 85 136 137 137
46 354 79 148 149 152
70 321 115 118 117 117
49 457 64 117 118 120
161 323 231 136 135 136
187 324 256 47 48 48
230 359 305 57 58 60
218 324 294 130 130 130
246 325 320 92 93 95
127 323 183 71 71 72
153 324 222 130 131 132
162 324 232 98 98 99
186 324 255 52 50 51
87 271 141 78 78 81
187 324 257 81 82 83
188 324 257 120 123 123
204 324 276 100 97 100
217 325 292 116 117 117
227 174 316 66 64 66
218 325 295 97 94 96
160 324 229 152 151 151
186 324 253 100 98 98
186 325 253 66 63 64
187 325 256 88 92 91
33 256 40 73 73 73
188 325 257 77 80 80
245 326 319 103 106 107
185 325 253 73 72 73
186 325 255 51 53 54
218 326 294 97 95 97
144 315 212 60 60 62
219 326 295 65 62 65
219 326 296 88 84 88
220 326 297 84 81 85
244 326 318 87 89 90
127 324 185 78 81 83
184 325 253 49 48 50
220 326 296 60 56 60
221 326 297 78 76 80
262 326 332 119 118 120
128 324 185 73 77 79
238 303 315 105 109 111
129 324 187 130 130 131
177 304 243 90 89 90
142 325 205 60 60 61
184 326 253 89 90 91
202 243 283 68 66 68
188 326 259 61 62 62
218 327 294 111 107 110
101 284 154 141 140 141
219 327 295 60 56 60
220 327 296 58 56 59
242 327 318 83 84 85
106 324 155 97 97 97
106 324 157 80 80 82
256 130 337 66 66 66
128 325 186 113 115 115
182 326 251 73 72 73
131 256 198 138 139 140
183 326 252 84 85 86
134 382 188 122 121 126
124 113 190 97 98 99
242 327 317 88 90 91
52 323 91 53 54 57
189 327 259 119 120 120
128 451 168 76 74 80
189 327 260 90 90 90
190 327 260 83 84 84
204 340 272 41 42 43
190 327 261 92 92 93
132 72 202 148 148 152
259 328 329 84 81 83
199 456 248 86 86 89
106 325 156 113 114 115
183 327 251 136 138 139
219 328 295 53 50 53
220 328 296 57 56 58
148 22 218 127 127 130
43 397 64 96 94 97
190 327 262 148 148 149
221 328 298 110 112 112
140 327 202 127 129 131
144 327 208 89 90 92
145 454 188 122 122 122
190 328 260 112 113 113
191 328 262 95 94 96
218 328 293 110 105 109
252 145 333 103 103 102
220 329 297 70 73 73
230 462 293 139 133 140
170 252 242 103 101 101
221 329 298 83 86 85
222 329 299 86 87 87
156 352 221 59 55 59
54 324 95 125 126 128
217 329 293 73 71 73
28 155 44 82 82 83
218 329 294 68 68 69
211 386 276 126 128 129
219 329 295 49 52 52
122 458 148 55 54 56
221 329 299 70 71 71
222 329 300 122 122 123
54 325 93 114 115 116
184 293 252 133 133 135
155 328 222 92 92 93
190 329 261 141 141 141
191 329 261 118 119 119
201 387 262 141 141 141
191 329 263 85 85 86
32 209 33 87 88 89
192 329 263 82 82 83
217 329 294 94 94 97
244 383 315 125 122 125
221 329 297 145 149 147
107 324 156 81 80 81
223 329 300 150 150 149
236 330 312 141 138 142
55 325 94 119 122 121
131 327 192 114 113 115
35 356 36 97 95 100
154 328 221 129 128 130
93 252 147 67 66 66
193 329 263 93 92 93
219 330 294 115 120 119
219 330 295 118 123 122
114 438 147 62 61 66
221 330 299 118 120 120
222 330 300 79 79 80
223 330 300 88 89 89
102 327 152 57 56 59
197 290 271 94 95 98
154 329 221 69 69 70
55 416 82 119 119 122
193 329 264 113 111 113
193 329 265 113 110 113
196 330 269 63 64 66
197 330 269 78 80 82
133 432 178 98 94 97
198 330 270 131 134 135
242 330 318 116 117 117
260 331 331 82 84 85
31 330 41 111 106 108
55 326 94 140 143 141
131 328 190 148 149 149
191 330 262 147 147 147
192 330 262 130 129 130
193 330 263 77 75 78
194 330 263 72 68 72
194 330 264 77 74 78
13 29 42 114 111 124
195 330 265 66 64 68
195 330 266 86 83 87
195 330 267 105 104 106
224 331 301 86 86 88
46 326 82 90 88 90
62 326 107 77 78 78
87 362 129 62 61 64
195 330 264 74 71 75
196 330 267 63 63 65
252 362 319 76 80 80
197 330 268 74 77 78
45 326 82 73 71 73
47 326 83 113 112 113
194 331 263 87 85 89
195 331 265 59 58 62
196 331 268 134 136 136
46 327 82 100 100 102
46 326 83 78 78 79
225 332 302 89 89 91
114 62 175 145 145 146
225 332 303 90 90 92
104 238 161 148 150 152
45 327 81 65 63 66
46 327 81 93 92 96
190 131 273 48 48 49
88 328 139 137 136 137
134 330 196 108 107 110
193 331 262 137 135 138
95 65 154 107 107 105
196 331 265 64 65 68
226 332 304 133 133 134
231 332 309 147 146 148
53 345 90 126 123 126
117 329 170 76 76 77
37 246 28 62 64 63
133 330 194 53 51 53
152 331 218 134 136 139
193 332 262 71 71 73
194 332 263 72 73 75
49 331 85 97 97 98
121 444 154 49 45 50
195 332 264 93 96 97
196 332 265 54 58 58
224 333 302 138 139 140
67 404 101 57 60 60
87 287 141 149 149 151
226 333 304 80 79 81
231 333 309 91 91 93
116 330 169 84 84 87
117 330 169 70 71 72
118 330 170 71 73 75
104 380 142 72 74 75
134 331 195 60 60 63
178 263 249 115 116 117
192 332 260 118 116 118
192 332 261 86 85 87
162 441 206 50 48 52
193 332 261 87 86 88
157 438 206 148 146 149
228 333 305 95 93 95
108 445 135 70 71 73
230 333 309 101 100 103
60 328 101 71 66 70
116 330 167 125 125 127
117 330 170 66 66 71
132 331 194 49 50 53
150 332 217 103 102 107
163 332 230 112 113 114
193 333 261 111 113 114
195 333 265 130 134 135
196 333 265 116 118 119
240 355 314 124 127 126
197 333 266 75 77 78
230 334 307 65 63 67
230 334 309 69 70 73
231 334 309 85 87 89
231 334 310 78 78 80
232 334 310 118 121 121
249 334 322 69 66 69
255 390 320 145 141 145
38 325 22 135 137 132
77 330 127 90 91 93
118 330 171 68 72 74
133 331 193 55 55 58
134 331 198 116 117 121
191 333 259 115 112 115
115 331 167 71 71 72
130 332 191 82 82 83
131 332 192 67 68 69
133 332 196 67 69 72
190 333 259 91 89 91
198 333 267 107 109 110
155 297 223 151 152 150
228 334 305 60 56 60
230 334 305 65 62 66
66 294 112 128 128 128
250 335 323 47 46 49
130 365 182 91 91 93
129 332 190 114 113 115
156 268 225 94 94 96
148 333 215 49 49 53
149 333 216 60 60 64
156 237 225 86 86 89
191 334 260 101 103 105
36 323 27 42 40 41
197 334 266 115 118 117
198 334 267 78 80 80
198 334 268 85 86 86
55 341 97 69 70 69
227 335 305 38 37 40
230 335 306 60 61 64
138 457 180 134 136 136
230 335 307 114 117 119
90 317 141 112 112 115
129 332 191 55 55 57
135 332 197 130 132 133
181 334 249 129 131 131
188 334 257 97 95 98
191 334 259 99 100 103
199 334 268 103 105 105
74 447 103 54 50 54
206 215 290 141 141 143
228 335 305 43 42 45
43 343 72 119 121 124
114 332 165 90 90 91
129 333 190 72 73 74
214 290 294 70 71 73
187 334 256 132 130 131
198 335 267 133 134 134
198 335 268 101 103 103
226 335 303 92 92 95
76 398 109 92 92 93
228 336 304 84 85 87
34 216 59 150 151 151
230 336 306 66 69 70
215 187 302 133 136 137
114 332 166 66 66 67
33 350 48 89 91 88
188 335 257 78 79 81
47 433 68 124 124 127
189 335 258 119 121 122
200 335 270 99 99 100
215 335 288 112 110 113
226 336 302 73 72 75
228 336 305 105 106 107
104 275 159 69 68 73
230 336 307 79 82 83
231 336 307 100 101 102
113 333 163 73 72 74
113 333 164 75 75 77
35 234 30 39 38 38
115 333 166 145 147 148
47 275 87 107 106 109
128 333 187 146 146 147
128 333 190 72 74 76
187 335 257 64 64 65
189 335 257 117 119 120
200 335 269 79 80 80
113 50 181 125 124 124
227 336 302 67 66 69
37 327 24 99 101 97
110 283 165 69 70 71
63 331 105 148 147 148
36 366 46 89 90 88
112 333 162 79 77 79
128 334 189 80 81 82
188 335 256 75 76 78
177 432 225 65 65 67
230 337 306 117 119 119
232 337 308 99 98 100
88 375 127 66 65 68
38 328 22 119 123 116
113 333 162 59 58 60
144 335 210 83 83 84
184 336 251 136 135 138
202 336 272 105 104 106
95 333 144 128 130 132
186 337 256 91 93 95
112 334 162 53 54 56
113 334 163 113 114 116
200 337 270 141 142 143
145 202 221 103 104 106
201 337 271 93 93 95
212 345 287 77 76 78
201 337 272 77 75 76
116 451 142 132 137 131
202 337 272 68 66 69
231 338 307 116 117 118
232 338 308 78 77 79
35 346 31 131 130 128
39 328 23 64 64 61
144 336 211 125 129 128
119 184 183 119 119 118
203 337 275 97 95 98
204 337 275 77 75 78
137 336 200 145 147 147
139 336 204 143 142 143
142 336 208 85 85 87
144 413 199 86 84 87
144 336 210 98 100 101
121 432 155 56 54 55
203 337 273 70 65 70
203 338 275 59 57 60
234 338 309 102 101 103
62 326 108 55 55 55
187 337 256 117 119 121
201 338 271 129 127 130
234 339 309 89 89 91
234 339 310 69 68 70
39 329 24 117 119 117
118 220 180 100 101 101
53 333 91 108 106 109
55 333 95 125 125 127
139 336 202 102 103 102
141 337 206 63 62 65
142 337 208 65 67 69
143 337 209 117 120 121
215 237 299 130 129 132
219 339 296 150 146 150
235 339 311 97 96 97
141 337 205 72 70 74
114 385 156 61 60 64
143 337 207 121 123 126
161 338 228 127 126 128
201 339 271 95 93 95
265 256 334 45 42 44
202 339 272 54 51 54
167 400 219 67 62 67
202 339 273 56 53 56
203 339 273 52 51 54
203 339 274 57 57 60
234 339 308 124 125 124
234 340 310 89 89 90
53 334 91 74 71 76
54 334 92 80 78 81
141 337 203 72 72 73
34 302 40 136 136 136
142 337 204 65 65 68
203 339 272 53 52 54
142 337 203 70 70 71
142 338 205 71 73 76
239 341 315 90 90 92
142 338 206 113 115 118
96 385 131 56 59 58
203 340 271 50 50 53
129 335 188 146 150 148
204 340 276 63 64 65
237 341 312 90 86 90
38 324 24 53 55 51
108 337 157 90 92 93
109 337 157 118 119 120
121 97 186 96 96 97
201 340 270 83 81 84
202 340 271 77 78 80
40 429 60 148 145 149
204 340 274 58 62 63
204 341 275 126 130 130
205 341 276 96 97 98
238 342 312 52 49 53
122 338 174 127 126 127
205 341 275 124 126 128
261 342 328 49 43 49
176 341 243 76 72 74
191 341 259 96 97 97
240 342 314 110 111 111
225 126 316 73 74 76
51 336 90 61 65 67
38 71 77 130 130 133
123 339 175 80 81 83
177 341 243 72 66 69
180 341 248 115 117 118
39 293 71 101 99 101
206 342 277 113 113 114
215 342 290 138 135 137
217 342 292 72 72 74
14 36 43 43 43 46
207 342 280 145 144 146
215 343 290 70 69 71
186 386 244 46 40 45
48 337 84 94 94 95
48 337 85 69 70 70
179 260 254 90 88 90
119 339 170 117 115 116
167 400 220 63 60 63
123 339 174 98 99 101
66 30 128 96 97 97
144 341 207 99 100 100
206 343 278 117 117 118
68 282 115 70 69 67
64 423 89 61 64 65
208 343 280 108 107 109
264 352 330 146 147 150
214 343 289 110 108 110
236 344 311 116 119 120
69 379 109 86 86 87
237 344 313 65 70 69
35 359 36 32 37 36
154 341 220 138 137 138
205 132 291 130 131 131
155 341 222 62 63 63
179 342 244 76 78 80
155 151 233 118 118 120
214 344 289 79 78 80
46 337 82 146 146 146
47 337 83 97 96 97
121 340 173 80 80 82
195 343 263 72 68 70
207 344 279 121 122 122
207 344 280 71 70 71
232 344 308 124 120 124
46 338 82 83 83 85
47 338 83 74 75 77
47 338 84 81 82 83
153 342 219 127 126 127
208 344 282 113 112 113
70 322 117 126 127 127
209 344 282 111 109 111
212 344 287 147 144 148
146 187 223 116 116 116
213 344 287 100 97 101
154 253 224 95 94 95
224 345 299 147 148 150
232 345 308 111 108 112
154 343 220 79 80 82
154 343 221 103 104 106
212 345 286 78 77 80
213 345 288 79 79 80
214 345 288 132 133 134
231 345 307 117 114 118
152 343 218 103 102 104
152 343 219 64 64 66
37 198 65 146 148 149
176 343 239 85 86 90
106 444 132 52 50 51
179 344 245 75 75 76
209 345 283 83 81 84
212 345 285 86 83 86
124 364 169 131 130 132
68 340 115 124 126 125
173 344 237 81 80 82
210 345 282 74 72 75
36 336 28 73 72 77
161 405 213 73 75 75
134 343 194 88 87 91
151 344 216 97 96 98
152 344 218 68 69 70
153 344 219 117 119 120
173 344 236 101 99 102
209 346 282 109 107 111
212 346 284 53 52 54
99 342 147 100 99 99
99 342 148 74 75 75
173 345 238 83 84 86
212 346 282 47 46 50
213 346 284 108 109 113
230 347 306 107 109 110
150 345 216 76 75 77
64 340 108 147 150 150
246 347 318 120 119 121
250 348 322 86 82 86
117 343 166 109 109 111
103 276 158 57 60 62
210 347 281 73 72 76
64 436 87 139 138 141
211 347 282 59 60 64
32 215 49 94 96 90
211 347 283 63 64 66
43 362 71 150 149 152
212 347 283 103 105 107
72 342 121 123 121 122
97 343 146 73 73 74
222 447 286 77 73 78
116 343 165 133 132 134
116 343 166 85 85 87
116 343 167 53 54 56
34 327 34 89 91 91
209 347 279 118 117 119
213 347 285 100 101 102
206 74 296 110 111 110
59 342 102 72 72 75
97 343 145 93 92 92
116 344 166 73 74 76
117 344 166 110 112 114
117 344 167 107 108 110
68 131 123 88 88 86
124 344 176 121 121 122
45 287 81 67 67 65
191 347 257 95 97 97
210 347 279 72 70 73
212 348 283 141 145 146
213 348 284 99 102 101
213 348 285 68 69 69
233 6 329 135 133 137
214 348 286 85 85 85
227 348 301 82 80 83
112 385 154 124 118 124
228 348 302 60 60 62
37 442 50 134 139 134
96 343 144 123 122 122
208 348 278 102 101 104
209 348 278 81 81 82
140 440 189 64 57 63
63 278 108 84 84 87
248 349 318 101 99 104
186 347 253 145 143 145
75 343 120 71 70 71
76 344 122 106 106 109
107 382 146 120 121 122
130 346 187 75 75 78
235 407 309 124 129 126
187 348 253 64 63 66
188 348 253 80 80 82
214 349 285 116 117 117
215 349 287 73 73 74
250 350 321 52 58 58
186 348 251 60 57 61
208 349 277 83 84 86
190 460 237 146 146 147
215 349 288 84 84 85
216 349 288 110 109 110
121 391 165 123 119 123
129 346 185 126 125 127
129 346 186 99 98 100
215 350 286 127 129 129
216 350 288 71 71 71
227 276 310 143 141 142
202 24 290 94 95 94
248 351 319 128 132 132
59 344 100 81 86 85
129 347 187 79 80 82
33 339 31 75 75 78
37 275 65 149 149 147
148 348 213 66 70 71
61 346 103 106 107 105
105 30 172 125 124 127
215 350 287 104 105 105
220 269 302 108 106 108
216 350 287 93 94 95
177 40 257 149 148 150
232 351 306 132 132 135
61 344 101 81 84 84
128 347 183 96 95 97
150 348 215 123 126 127
185 349 251 50 47 50
216 351 288 117 118 118
253 351 323 108 108 110
132 32 203 140 141 139
38 340 24 30 30 32
128 347 182 109 107 112
74 275 125 100 100 100
243 244 324 97 97 99
76 346 121 128 132 132
128 348 182 56 55 59
103 232 159 135 136 136
153 279 218 144 143 144
129 348 185 128 131 134
170 350 235 57 58 60
218 351 291 73 72 75
112 347 157 86 85 87
128 348 180 63 62 65
128 348 184 90 92 94
219 355 292 53 56 58
188 350 253 134 135 137
188 351 254 87 87 89
218 352 290 124 124 125
218 352 291 92 90 93
231 294 310 69 72 74
254 353 323 86 86 89
219 168 306 84 86 85
190 360 252 115 117 118
173 350 237 141 140 143
220 352 293 74 72 75
128 349 181 54 56 58
128 349 182 106 108 111
191 355 258 95 95 96
188 351 255 102 102 103
218 353 290 124 122 125
128 349 179 55 56 56
204 299 278 46 45 47
140 350 204 111 108 112
141 350 205 98 96 100
237 354 312 50 45 51
258 354 325 83 81 83
189 352 256 96 96 98
220 354 292 47 47 50
220 354 293 54 55 57
127 350 180 87 91 92
128 350 181 70 75 75
141 351 203 61 60 63
141 351 205 70 69 72
37 416 51 107 106 106
113 425 150 77 79 82
157 351 221 123 120 123
133 371 187 53 56 57
157 351 222 121 117 120
158 351 222 138 134 136
26 454 18 117 114 117
189 353 256 88 88 89
190 353 256 93 93 95
219 354 292 44 44 48
221 354 294 67 69 69
259 447 324 116 115 120
237 354 310 138 137 141
207 314 282 102 102 103
157 352 221 64 61 63
252 282 325 141 144 147
221 354 295 102 104 104
128 351 182 65 69 68
237 370 310 100 105 104
157 352 220 65 62 64
164 441 209 127 128 130
178 353 241 108 103 107
190 353 257 98 97 98
216 355 289 99 96 100
219 355 293 88 91 92
220 355 293 83 86 86
221 355 295 76 78 78
221 355 296 72 73 73
178 158 259 127 128 126
222 355 297 104 104 105
199 410 259 130 127 131
125 350 174 131 130 131
125 351 174 63 64 65
158 352 220 56 53 55
217 355 290 78 76 79
218 355 290 63 63 66
237 356 310 57 55 59
125 351 175 64 64 66
130 351 184 133 133 133
178 353 239 75 72 77
191 354 258 86 87 87
234 356 309 128 125 129
235 356 309 122 118 122
236 148 322 74 75 73
139 352 198 112 109 111
179 354 239 63 61 64
219 458 276 67 62 68
222 356 296 119 121 121
235 357 310 77 77 80
212 220 298 120 121 123
123 351 171 107 107 107
142 364 202 73 71 76
167 371 223 112 113 114
124 352 173 83 85 87
125 352 174 128 131 133
192 355 259 78 77 79
202 22 292 74 76 75
223 357 299 80 79 82
29 31 60 132 134 131
232 357 308 125 121 125
48 71 92 70 72 68
233 357 309 66 64 67
237 93 325 119 119 121
52 335 91 65 64 67
118 351 163 72 74 75
142 353 204 81 83 84
180 354 240 97 98 99
194 355 260 93 89 92
194 355 259 78 74 78
138 310 205 111 111 113
195 355 261 124 119 123
196 356 263 70 67 70
232 357 309 43 42 45
193 356 259 68 66 68
194 356 259 64 61 64
219 378 288 64 61 65
195 356 260 67 64 67
195 356 261 73 68 72
196 356 264 56 54 57
238 380 308 43 39 44
224 357 301 110 109 112
52 272 94 131 133 134
173 269 243 77 79 81
231 358 308 84 81 85
122 353 169 51 50 54
224 358 299 127 127 129
225 358 301 72 71 75
230 358 307 85 84 86
67 351 113 105 105 108
120 353 168 73 70 74
138 354 196 92 93 94
194 357 260 61 58 61
196 357 263 94 95 96
39 232 67 149 148 151
212 358 284 63 64 66
214 358 286 112 114 114
227 358 302 91 87 91
230 358 306 117 113 117
256 359 323 72 68 73
137 355 196 120 122 125
195 357 259 57 56 59
196 357 260 51 51 54
224 358 301 85 85 87
110 281 167 61 60 60
68 451 91 141 136 144
226 359 302 58 55 59
254 458 324 88 87 88
185 106 266 62 59 65
231 359 307 94 96 98
119 354 166 109 108 108
131 355 188 90 92 93
154 356 217 83 83 83
213 358 285 81 82 83
226 359 301 81 79 82
155 144 233 138 139 140
245 359 318 76 75 76
120 211 183 42 40 43
120 354 168 56 56 60
133 355 191 104 101 106
166 332 231 143 144 143
145 356 208 83 83 85
35 218 62 120 120 118
180 357 242 62 62 64
194 358 259 75 76 78
195 358 260 107 109 111
207 238 290 83 82 84
195 358 261 48 52 52
196 358 262 98 101 102
145 356 207 83 83 84
146 356 209 129 127 129
194 358 260 140 142 143
227 360 301 102 99 103
79 356 123 120 119 124
228 360 302 43 42 45
94 31 151 83 84 79
229 360 303 59 61 63
145 357 207 113 113 116
188 424 242 70 67 72
151 357 214 134 131 133
143 427 195 101 101 103
197 359 263 88 88 89
245 435 311 112 114 113
228 360 301 58 55 59
37 347 25 48 46 49
62 353 105 107 109 109
120 210 183 83 81 82
146 357 209 52 50 53
148 357 210 105 102 105
213 360 283 97 99 100
226 361 300 71 69 74
227 361 301 49 48 53
149 358 211 65 62 65
190 359 253 102 100 103
191 238 270 114 115 117
198 359 264 136 134 137
212 360 281 108 111 112
227 361 300 63 63 66
36 322 29 117 113 114
185 169 264 73 70 72
228 361 301 75 76 78
119 356 165 63 64 65
119 356 166 49 49 50
148 358 209 78 76 78
151 358 213 82 82 84
185 359 246 114 112 115
169 358 229 141 138 141
189 359 253 103 101 104
230 361 303 54 57 57
89 193 146 134 133 135
230 361 304 85 87 88
46 353 79 123 124 128
45 340 77 52 53 55
117 356 163 125 124 124
118 356 165 62 63 64
150 358 212 61 59 62
189 360 252 77 78 81
243 89 330 118 120 122
189 360 253 63 64 66
190 360 253 80 81 83
191 360 254 103 105 108
230 362 304 72 74 74
161 30 231 116 117 117
36 351 50 77 77 79
199 341 268 53 52 54
90 355 135 112 112 114
117 356 164 89 89 90
132 358 188 54 54 55
147 359 209 109 107 108
201 460 250 150 148 149
260 319 331 136 142 142
149 359 211 53 51 53
32 291 47 117 117 117
44 326 80 144 139 140
157 194 232 131 131 134
150 359 211 72 71 73
188 360 250 102 99 103
214 361 284 75 76 78
84 130 141 131 131 130
197 201 281 142 141 143
215 361 285 109 110 112
145 438 196 65 62 63
232 362 306 136 135 136
116 357 162 101 101 101
118 357 165 112 114 114
124 357 172 77 78 78
130 358 186 120 119 120
148 359 210 48 46 48
148 359 211 41 39 42
166 359 226 139 139 139
186 360 249 131 126 131
187 360 249 104 101 104
170 447 216 44 37 46
140 417 190 138 139 139
199 361 264 100 100 101
214 362 284 95 96 97
216 362 286 102 102 105
171 94 251 90 89 90
231 363 305 73 73 73
232 363 305 90 89 91
233 363 306 86 85 87
259 426 323 75 65 76
108 356 152 80 83 81
116 357 163 56 57 57
90 419 122 100 97 101
134 359 192 122 125 125
56 307 96 143 143 146
147 359 210 49 46 48
186 361 248 50 46 50
188 361 250 90 88 92
207 362 275 78 79 80
203 446 256 149 141 148
215 362 284 82 83 84
45 240 78 149 149 151
115 357 160 143 142 143
149 360 210 46 46 48
166 360 226 141 139 140
205 362 272 110 107 111
100 252 155 111 112 113
215 363 285 128 129 130
129 192 200 63 63 65
217 363 288 79 78 80
137 194 210 150 150 149
222 363 294 139 136 139
222 363 295 102 100 102
223 363 297 74 73 76
233 364 306 98 97 99
116 358 162 87 90 90
130 359 185 59 61 62
151 360 213 105 106 109
187 361 248 50 47 53
52 82 95 52 52 52
201 362 267 59 58 60
206 363 273 97 98 99
216 363 285 123 124 125
216 363 286 73 74 75
221 364 294 78 77 80
221 364 295 65 64 67
222 364 295 84 85 86
222 364 296 61 62 64
145 360 207 120 119 122
168 361 227 50 50 52
187 362 248 56 55 59
38 264 62 147 151 151
203 363 271 83 79 84
205 363 273 58 57 60
216 364 286 97 98 99
167 349 229 55 56 57
217 364 288 85 84 85
141 300 205 98 96 97
36 420 43 146 148 149
218 364 289 49 47 49
123 435 163 109 107 112
220 364 293 111 108 111
256 360 323 124 127 127
236 364 308 136 135 138
38 350 22 88 87 86
219 403 289 87 86 88
45 355 73 121 123 123
129 360 184 68 69 71
129 360 185 66 67 69
151 361 214 104 103 105
259 427 325 104 101 106
152 361 214 101 102 103
186 362 248 54 51 55
187 362 250 101 101 105
48 356 82 147 146 148
201 363 267 112 111 112
203 363 270 54 49 54
235 232 321 141 146 148
217 364 287 110 110 110
234 365 306 137 137 141
235 365 308 67 66 69
39 351 24 99 99 103
36 353 46 105 107 106
153 361 214 123 123 124
153 281 218 36 37 41
187 363 248 57 59 62
219 365 290 54 50 53
219 365 292 60 56 60
220 365 293 78 79 81
29 365 16 127 132 130
221 365 294 102 104 105
125 360 174 123 123 122
206 142 294 72 71 72
126 360 177 93 89 93
143 362 207 58 58 61
247 444 313 50 50 52
153 362 214 79 80 80
200 364 268 139 138 139
222 41 314 149 151 150
217 365 289 118 117 118
191 216 271 129 128 130
218 365 289 104 102 104
218 365 290 85 83 85
219 365 291 46 42 46
235 366 308 139 140 142
236 366 309 85 83 86
39 352 22 73 76 75
39 352 23 103 104 107
33 227 28 73 74 78
93 358 134 141 141 140
93 358 135 114 114 114
79 60 135 57 58 55
176 230 250 114 115 115
128 360 178 131 127 131
152 362 214 79 80 81
50 444 70 147 150 148
41 281 73 114 113 118
183 363 245 142 140 142
75 407 109 117 114 117
173 424 221 96 97 99
37 318 62 119 121 120
158 128 236 148 150 148
189 364 252 79 79 80
218 365 291 46 41 44
127 361 178 68 64 69
128 361 178 63 61 66
138 303 201 57 58 60
138 362 198 82 82 83
37 310 64 77 78 78
153 362 215 105 105 106
134 292 198 40 41 45
154 362 215 108 108 108
154 363 215 85 86 86
162 363 223 118 115 118
186 364 247 66 70 71
201 365 269 52 51 53
203 365 270 48 50 51
218 366 290 73 72 74
111 48 174 80 81 78
218 366 291 49 48 49
219 366 291 52 51 53
78 359 121 55 56 60
140 362 201 149 144 148
141 363 203 94 91 97
142 363 204 63 62 67
155 363 216 94 94 95
201 365 268 57 55 58
38 353 22 127 132 129
95 45 153 93 94 93
39 353 22 121 125 122
54 195 92 78 77 80
39 353 23 115 118 118
35 354 42 134 133 133
63 358 104 131 131 132
215 331 290 89 90 91
128 361 177 58 57 61
141 363 201 81 77 82
141 363 204 80 78 83
162 364 224 84 83 85
47 291 86 85 85 86
189 365 251 141 142 143
190 365 252 102 103 104
96 410 126 96 93 98
191 365 254 108 107 110
201 366 269 61 65 65
220 367 294 81 81 83
236 367 308 113 109 114
94 345 143 58 56 59
236 367 309 99 95 100
35 355 41 94 92 95
128 362 177 49 49 52
128 362 178 49 50 54
33 223 37 95 97 98
129 362 179 120 122 127
140 363 199 63 60 63
37 327 26 65 65 67
155 364 215 123 126 124
157 364 217 86 85 87
162 364 223 77 77 79
91 236 146 141 142 142
183 365 245 126 129 130
190 365 254 63 62 65
130 9 198 57 57 57
259 277 331 145 148 149
199 366 266 82 81 83
217 367 289 91 89 92
219 367 290 54 54 56
232 442 298 83 81 84
219 367 292 58 61 62
221 367 295 109 108 112
33 258 54 92 93 92
236 368 308 128 126 130
237 368 308 90 87 91
35 355 40 115 113 116
128 362 179 80 81 85
141 364 202 52 49 55
158 364 217 79 76 79
191 366 254 90 90 92
191 366 255 70 69 73
216 367 288 117 116 119
139 402 193 103 101 104
68 235 117 142 144 145
220 368 294 63 63 65
221 368 295 71 71 73
127 402 173 42 41 45
35 355 39 119 118 121
86 79 145 105 106 102
128 362 176 79 79 81
167 6 248 117 118 116
128 363 178 73 75 78
139 364 198 121 121 122
142 364 200 56 52 57
156 364 216 89 90 90
87 366 128 99 102 101
120 393 164 66 63 69
159 364 218 93 89 93
133 304 196 113 112 113
44 148 79 77 76 81
161 365 222 77 77 79
162 365 222 111 112 114
212 453 269 123 116 126
104 380 143 76 79 81
180 365 241 138 135 139
32 308 42 76 79 78
198 367 264 76 76 78
88 128 146 91 91 94
198 367 266 50 50 53
205 367 273 115 116 116
205 367 274 84 84 85
218 368 289 60 61 62
219 368 292 122 126 126
220 368 293 115 116 117
34 356 39 72 68 73
88 361 130 68 68 69
89 361 130 72 72 74
156 365 216 129 129 127
139 280 204 144 143 146
160 365 218 58 56 59
28 454 20 121 121 123
179 366 238 85 82 86
198 367 265 76 76 77
215 368 286 144 143 146
97 308 149 111 111 112
114 294 170 143 144 145
221 368 293 145 147 147
78 447 105 60 55 63
235 369 308 81 77 83
240 369 311 96 100 99
37 348 26 48 47 52
40 358 65 80 78 83
82 361 124 70 71 72
159 365 218 65 61 65
40 354 58 135 134 136
191 367 254 135 135 136
194 367 258 102 98 103
197 367 264 66 66 69
158 340 225 54 52 54
216 368 287 96 92 96
183 140 263 94 94 96
222 369 297 87 85 88
223 369 297 87 86 87
244 462 313 79 72 81
35 356 33 97 98 95
87 361 128 132 130 133
88 361 128 115 112 114
128 364 178 128 134 134
128 364 179 82 85 86
128 364 180 64 66 68
129 364 180 71 71 73
191 353 258 139 138 140
129 364 181 115 114 116
190 348 255 140 143 144
139 365 198 89 89 90
157 366 216 128 129 128
149 196 227 130 130 128
158 366 217 79 80 81
180 367 241 102 104 106
181 367 241 129 130 133
193 367 258 89 86 89
196 367 261 142 140 143
196 368 262 66 65 67
196 344 264 55 55 57
34 314 36 94 94 94
197 368 264 67 68 70
198 368 264 107 109 110
188 283 262 79 80 83
215 369 286 76 76 78
215 369 287 79 79 81
223 369 298 113 113 115
233 370 307 66 65 68
234 370 307 81 81 84
237 370 308 114 118 118
237 370 309 93 98 98
261 370 324 65 70 71
35 356 34 47 47 48
105 275 160 149 149 152
65 361 104 145 144 145
86 362 127 86 82 87
87 362 128 63 61 64
88 362 129 92 92 95
89 362 130 92 93 95
138 365 197 123 122 123
139 365 197 89 88 89
143 365 203 122 125 125
159 366 217 58 58 60
160 366 217 42 43 45
161 366 218 53 55 57
179 367 238 55 52 58
180 367 238 64 64 69
119 223 184 68 65 68
192 368 256 134 134 135
41 180 72 121 121 118
193 368 256 98 97 99
196 368 260 61 58 63
196 368 261 68 65 69
223 370 297 97 97 98
39 259 29 118 119 116
223 370 298 70 70 71
224 370 298 83 83 84
50 360 85 83 83 82
85 362 126 93 90 94
85 362 127 119 114 118
101 363 141 141 144 145
129 364 179 105 108 108
129 365 180 110 111 112
38 258 30 147 149 146
138 366 197 56 57 59
140 366 198 106 110 110
158 366 216 125 125 127
160 366 218 44 45 47
196 368 259 60 56 61
209 369 279 110 108 111
213 370 285 61 59 64
222 351 297 69 69 73
37 312 31 43 43 46
224 370 299 80 79 81
234 370 306 111 113 115
227 399 297 68 68 69
34 357 33 125 125 121
137 366 195 86 85 87
138 366 195 81 80 82
33 23 71 88 89 90
158 367 216 69 71 72
158 367 217 42 43 45
55 429 78 132 132 137
195 369 258 55 54 57
196 369 259 63 63 66
210 279 288 89 90 92
196 369 260 101 101 104
159 222 230 99 101 103
196 369 261 87 88 90
37 210 62 98 99 98
211 369 279 92 88 92
243 215 325 150 150 150
213 370 283 68 65 69
201 271 280 61 60 63
119 378 164 123 119 123
213 370 284 66 64 68
214 370 285 97 97 99
225 371 299 81 80 83
226 370 300 140 140 143
231 371 305 72 73 75
83 98 140 79 79 81
231 371 306 87 86 89
232 371 306 77 79 81
40 359 58 139 139 135
261 371 324 134 141 139
244 413 312 149 151 150
85 363 125 57 55 57
86 363 128 79 78 83
87 363 128 92 90 95
128 230 197 100 100 102
213 371 281 77 77 80
104 363 144 79 76 79
24 118 32 98 100 97
106 363 146 132 128 133
107 364 149 86 86 88
214 418 282 80 74 81
35 299 36 106 105 105
125 365 172 140 142 144
163 301 230 127 130 131
137 366 194 101 100 101
139 366 196 105 107 108
156 367 214 121 121 122
149 399 204 65 67 68
157 367 216 57 58 60
195 369 257 59 57 60
196 369 257 51 50 54
79 159 132 65 64 63
196 369 258 48 48 52
208 176 293 143 144 145
224 371 297 137 139 140
132 267 198 52 52 54
225 371 300 64 62 65
221 240 306 136 136 134
226 371 300 89 87 90
99 70 159 116 114 121
227 371 301 108 103 108
130 366 182 87 88 89
238 407 313 61 59 62
130 366 183 81 81 83
137 367 195 74 76 78
192 58 278 113 114 115
156 367 215 61 61 62
231 372 305 63 65 68
123 365 167 126 123 128
103 274 158 50 49 51
156 368 214 69 69 70
157 368 215 96 97 99
133 71 204 133 131 136
157 368 216 137 141 142
210 433 272 45 44 45
196 370 258 77 79 81
196 370 259 54 57 57
210 371 277 132 132 134
46 302 82 51 51 55
225 372 299 120 119 122
226 372 300 53 51 55
227 372 300 61 58 62
194 176 275 73 73 72
229 372 303 63 61 66
204 124 293 122 123 122
231 372 304 102 105 108
85 364 126 49 48 51
86 364 126 46 46 49
87 364 128 95 95 99
130 367 183 97 98 99
131 367 184 75 75 76
178 381 233 72 75 76
83 336 131 106 104 106
131 367 185 74 74 76
135 367 192 116 114 117
155 368 213 87 85 88
181 369 240 82 83 85
253 186 334 145 148 148
194 370 255 58 58 60
194 370 256 73 73 75
197 370 259 125 128 130
197 370 260 116 118 119
225 372 298 143 143 147
225 372 300 55 55 57
227 372 299 61 59 62
113 188 175 54 53 55
228 372 299 50 50 54
71 259 122 122 122 123
34 359 36 55 60 58
35 359 39 126 127 132
38 360 58 137 137 135
98 131 157 136 136 134
100 272 154 86 87 88
67 363 105 54 55 54
67 363 108 38 40 42
83 364 124 107 107 107
217 450 277 139 136 139
86 364 125 43 44 46
87 364 126 49 48 52
120 366 166 101 99 102
136 368 192 80 80 82
136 368 193 82 83 84
137 368 194 114 117 119
156 369 214 98 98 100
261 318 332 101 105 105
197 371 260 64 65 65
93 138 150 118 119 120
198 371 261 96 96 98
229 373 301 63 65 67
34 359 39 65 66 69
83 364 123 136 134 134
111 129 172 135 136 135
85 364 124 71 71 72
87 365 128 67 69 71
104 365 143 71 70 72
134 368 191 79 77 80
135 368 191 68 66 69
135 368 192 62 62 65
155 369 213 74 74 77
59 458 81 113 105 114
59 279 102 76 75 75
192 370 253 141 138 142
192 371 253 74 73 76
127 102 193 112 112 112
193 371 254 71 72 75
245 338 319 65 64 67
196 371 258 130 133 133
71 452 95 69 67 72
34 72 66 72 73 73
197 371 259 98 100 101
62 236 110 105 102 102
230 373 302 108 112 113
157 268 226 110 111 112
136 266 203 48 50 54
247 373 316 64 62 67
82 365 122 147 146 146
85 365 124 47 49 50
86 365 126 87 91 91
87 365 129 98 98 100
102 365 143 126 125 125
218 390 286 91 88 90
131 368 185 132 132 134
153 41 225 82 81 79
132 368 185 96 96 99
10 20 43 143 139 150
149 369 207 80 79 83
212 372 279 73 75 77
226 373 299 140 140 143
101 129 162 52 52 51
34 360 34 112 117 114
35 360 35 109 113 113
34 360 36 122 129 125
62 384 95 132 134 133
153 370 211 76 76 79
38 313 27 45 46 44
154 370 212 102 104 107
193 371 253 79 79 82
197 372 260 123 123 124
198 372 260 125 126 128
214 373 283 105 104 106
226 374 298 76 76 80
116 227 179 139 140 142
228 374 299 91 94 96
101 381 140 75 76 76
228 374 300 88 91 93
244 331 319 138 138 140
229 374 301 78 81 82
30 358 16 139 138 139
37 362 57 62 63 62
84 366 125 100 105 104
88 366 129 72 73 74
132 369 186 118 117 119
132 369 187 64 61 65
133 369 188 43 40 44
135 369 190 114 114 117
118 183 183 115 114 113
152 370 211 58 57 61
168 370 225 129 127 131
190 372 250 82 81 84
191 372 251 72 73 76
192 372 253 108 110 112
210 373 278 78 82 81
215 373 283 112 111 113
226 374 297 78 76 79
229 374 302 67 70 71
230 374 303 121 123 125
62 365 102 81 81 82
121 432 159 126 125 129
102 367 142 67 68 68
104 367 144 81 85 85
172 371 228 73 71 75
172 371 229 73 72 76
173 371 230 71 72 74
191 372 250 83 82 85
199 373 262 94 95 96
207 373 274 134 132 137
225 374 296 121 119 123
95 256 148 147 146 148
226 374 296 118 115 119
62 253 110 117 119 117
132 369 189 49 45 49
230 375 302 89 90 91
259 314 330 109 107 110
36 249 29 129 131 124
88 367 129 106 108 108
134 370 188 51 50 53
134 370 189 78 78 82
171 371 227 115 113 117
171 371 228 82 79 84
188 372 248 123 121 124
207 373 273 117 114 119
