ply
format ascii 1.0
comment Created by Open3D
element vertex 4285
property double x
property double y
property double z
end_header
208 31 298
220 31 314
226 30 321
18 31 47
34 30 70
45 31 94
91 31 149
137 31 210
158 30 228
160 31 232
162 32 236
171 32 250
190 31 272
235 32 329
2 31 21
8 33 33
27 32 60
36 32 73
39 33 76
59 31 116
65 32 125
112 32 181
129 32 200
195 33 281
210 33 302
53 33 109
62 33 120
79 33 138
103 33 166
124 33 195
150 33 220
166 32 242
169 33 246
183 33 265
193 33 277
228 33 324
6 35 29
15 35 43
41 34 81
43 35 90
64 34 122
93 34 152
97 33 157
110 35 179
133 34 204
136 34 207
206 34 297
218 35 312
12 35 37
25 36 56
42 36 85
50 36 106
69 35 127
100 35 161
121 35 192
158 35 233
171 35 249
194 36 279
213 35 305
232 35 326
4 36 24
13 37 40
18 36 48
22 37 53
35 36 69
73 36 132
75 37 135
88 36 148
103 36 164
140 36 210
147 36 218
175 36 253
235 37 328
3 38 22
9 36 31
21 38 51
45 37 96
106 36 169
108 37 174
143 37 214
180 37 261
197 37 284
248 38 333
7 38 26
32 39 65
42 38 87
48 38 99
51 38 103
60 38 118
110 38 178
119 39 189
132 38 203
145 39 217
167 38 244
177 38 257
191 39 276
203 39 294
216 38 309
27 38 58
30 39 61
79 39 138
86 40 145
99 39 158
156 40 229
199 39 288
219 40 311
230 40 323
238 39 330
5 40 22
11 40 36
41 40 82
53 40 107
58 41 114
72 40 133
82 40 141
114 39 183
116 41 185
150 40 222
20 40 50
35 41 70
55 42 110
120 41 188
129 42 200
153 42 226
165 41 241
178 41 260
182 41 265
202 41 290
244 42 332
249 41 334
10 43 31
30 42 63
38 42 74
41 42 78
48 42 95
68 42 130
90 42 148
96 43 155
106 42 172
123 42 192
141 42 214
189 42 273
214 42 306
222 43 314
18 44 46
40 44 75
83 43 142
93 44 152
126 43 196
158 42 232
175 44 256
185 43 268
205 43 294
227 44 321
241 44 331
8 45 26
27 45 59
46 45 90
56 44 113
61 43 118
162 44 237
164 45 240
6 45 22
13 44 37
16 45 41
44 44 83
45 46 87
63 45 121
67 45 125
68 45 128
80 45 139
105 46 167
114 45 183
128 45 198
137 46 211
151 45 223
187 46 270
200 45 287
225 45 317
10 46 29
95 46 154
100 45 159
131 46 203
167 46 245
207 46 297
211 47 303
242 46 332
17 47 45
21 47 51
25 47 56
36 47 70
54 47 108
102 47 163
134 47 206
173 47 254
191 47 274
227 47 320
7 48 23
23 49 53
48 47 94
71 47 129
74 48 132
77 49 136
90 48 151
104 48 164
112 49 179
124 48 194
136 48 208
148 49 221
160 48 237
169 48 248
172 49 251
184 49 267
209 49 300
29 49 60
45 49 87
51 49 99
54 49 103
108 48 171
110 50 175
193 49 278
197 49 284
230 50 323
239 50 330
14 50 38
32 50 65
64 50 120
140 49 213
143 50 217
158 50 234
223 50 316
35 51 69
43 51 82
53 51 99
75 51 134
88 52 147
122 52 191
145 52 219
175 51 255
195 52 281
212 51 304
15 52 33
22 52 50
58 52 108
62 53 115
81 51 140
84 52 143
100 52 159
114 51 181
117 52 186
132 52 204
150 52 224
170 52 248
182 52 265
206 52 298
14 54 29
38 52 73
41 53 77
60 54 112
86 54 145
110 52 175
121 54 188
154 53 229
157 54 231
178 53 258
215 53 307
233 53 325
236 53 327
20 55 46
29 54 63
43 54 79
51 54 95
72 54 131
92 54 150
108 54 172
130 55 201
180 55 262
197 54 284
219 54 313
11 55 23
18 54 39
95 55 155
125 55 193
141 55 216
167 55 245
192 55 279
204 56 295
19 57 42
46 56 84
49 57 92
65 56 119
98 56 158
128 56 197
160 56 235
200 56 288
217 57 309
239 56 329
250 57 335
14 56 26
27 57 58
47 57 88
58 58 110
61 56 114
71 57 127
83 57 141
102 56 162
106 58 168
118 57 185
154 57 228
163 57 239
182 56 266
232 58 324
22 58 49
38 58 73
68 58 123
104 58 165
130 58 200
165 59 242
177 58 259
190 59 276
202 58 291
252 59 337
13 58 22
19 60 38
25 59 54
71 59 126
92 59 153
134 58 205
138 59 210
151 60 225
185 59 269
220 59 312
242 59 331
20 59 44
27 60 56
35 61 69
47 60 90
51 60 96
56 61 106
75 59 131
79 61 137
110 60 171
116 61 180
141 60 214
205 60 294
215 61 306
247 61 334
30 60 61
33 61 65
54 61 101
77 62 134
104 61 165
113 61 176
126 61 195
136 63 207
162 62 240
168 60 247
175 61 256
188 61 272
223 61 315
229 61 321
19 63 33
44 62 86
66 62 120
90 63 150
145 61 217
147 63 221
190 63 274
200 63 288
251 61 336
25 63 51
34 64 68
55 63 103
83 63 140
87 64 146
102 63 162
115 63 178
149 64 224
170 62 250
173 64 253
207 63 298
226 64 318
244 64 332
18 65 29
37 63 74
39 64 78
59 64 108
118 64 184
124 64 192
136 64 208
212 64 304
42 65 81
64 66 116
76 64 134
86 67 144
111 66 175
121 66 188
152 65 227
159 65 236
186 65 269
193 65 278
209 66 300
228 65 320
248 64 334
16 67 25
21 65 37
22 67 42
23 67 47
31 66 64
44 67 85
52 66 97
62 66 112
94 65 152
97 67 157
99 67 160
133 67 204
176 66 256
198 66 285
74 67 130
124 67 190
144 67 218
147 66 222
156 67 231
158 68 233
170 67 250
242 68 331
18 68 29
47 68 88
68 68 120
86 68 145
109 69 172
128 67 195
130 68 199
183 68 265
195 69 281
211 68 303
223 68 317
232 68 324
16 69 24
30 70 60
38 69 77
49 69 93
63 69 113
72 70 125
103 69 164
179 69 260
17 71 26
22 70 42
24 69 51
26 70 55
83 70 141
96 69 157
107 71 168
120 70 185
131 70 202
135 70 207
168 70 247
197 70 284
207 70 299
214 71 307
235 70 326
28 71 57
60 71 109
70 72 122
76 71 130
138 71 211
141 71 214
155 71 230
161 71 237
180 72 263
239 71 328
20 73 37
35 73 73
46 73 90
52 71 97
79 71 134
81 73 137
92 72 153
117 73 182
164 72 241
220 72 314
242 73 329
33 72 64
34 74 68
54 73 101
111 72 172
113 73 176
127 73 198
165 74 244
183 73 267
193 73 279
200 73 288
217 74 310
17 76 27
26 74 53
58 74 104
71 74 123
84 74 141
104 74 166
115 75 180
139 74 211
145 74 217
152 74 227
205 74 296
235 75 325
19 76 33
43 75 86
61 75 108
68 75 118
87 75 146
90 75 150
177 75 260
186 75 270
219 76 311
252 75 334
34 76 71
37 76 78
64 76 111
78 76 134
117 75 183
120 76 187
125 77 194
136 77 208
147 76 221
168 76 248
203 76 291
243 76 330
18 78 29
21 76 39
22 78 43
24 78 49
40 77 82
66 78 114
94 77 153
100 78 162
123 78 190
149 78 224
162 77 241
190 77 274
205 78 294
223 77 315
246 77 332
31 78 65
43 78 85
54 78 99
97 78 157
111 78 177
216 79 307
231 79 322
253 78 336
17 80 26
23 80 46
68 79 118
75 80 129
87 79 146
126 79 193
134 80 205
152 79 228
171 79 252
175 79 256
188 80 271
248 80 333
19 80 31
47 79 89
51 81 95
72 80 123
85 80 143
98 81 160
129 79 198
131 81 202
159 81 237
208 80 298
226 80 318
25 80 53
29 82 61
38 81 80
64 81 111
74 82 126
103 81 166
109 81 173
145 81 220
155 81 231
192 81 277
202 81 288
229 82 320
19 82 28
20 82 42
27 82 57
49 83 92
106 82 169
121 82 187
158 83 234
172 82 253
213 83 304
249 82 335
20 84 37
78 82 131
81 83 136
83 84 140
95 83 157
135 83 207
177 83 258
187 83 269
210 83 301
232 84 323
245 83 332
28 84 58
32 84 66
35 84 76
53 83 98
61 84 107
108 84 171
143 84 216
185 84 267
195 84 280
199 85 284
226 85 318
33 85 71
57 85 102
71 85 122
86 85 144
113 84 177
115 85 181
117 86 184
130 85 201
139 85 211
161 85 238
170 85 249
180 86 261
19 86 34
25 86 54
46 86 90
60 86 104
92 87 152
142 87 213
155 86 230
196 87 282
212 86 303
242 87 330
18 88 28
33 87 73
65 87 110
69 88 117
80 87 136
89 87 148
104 87 167
127 88 196
164 87 241
183 88 264
235 86 326
21 88 40
36 88 79
43 89 86
67 89 114
121 87 188
145 88 218
167 89 245
200 88 287
208 89 299
215 88 308
223 89 316
239 89 327
22 89 44
23 90 49
30 89 69
39 88 82
57 89 100
77 89 132
96 89 156
114 89 181
124 89 192
152 89 227
19 89 31
24 91 53
90 89 149
99 90 161
101 91 164
127 90 195
139 90 209
148 90 222
180 90 262
185 90 268
194 90 280
218 90 311
242 90 329
29 92 65
41 91 83
48 90 90
53 92 97
71 90 121
74 91 125
76 92 128
111 91 177
150 92 225
165 92 243
221 92 313
26 92 57
50 92 93
66 92 114
86 92 144
130 92 199
136 93 206
168 92 248
202 91 291
207 92 297
253 92 335
21 93 44
28 93 61
64 93 111
80 93 133
104 92 168
107 93 171
133 93 202
188 93 271
205 94 293
236 93 325
245 93 331
23 93 49
38 94 79
82 94 138
97 94 160
110 94 174
122 94 189
153 93 229
176 94 258
192 94 276
225 94 316
255 95 336
21 96 38
31 95 67
52 95 95
57 94 100
62 96 107
74 95 125
84 96 141
95 95 157
134 96 205
146 95 222
162 95 239
171 95 252
190 96 273
207 95 296
218 95 309
28 96 57
33 96 72
35 97 76
59 96 103
72 96 121
88 96 146
114 95 177
119 97 185
137 96 209
155 96 232
174 97 254
233 97 323
249 96 333
19 97 29
20 97 34
46 97 91
61 98 105
91 97 150
107 97 170
116 97 181
203 97 290
210 97 299
228 97 319
251 97 334
66 98 112
69 99 118
94 98 153
130 98 201
139 98 213
144 99 218
159 98 235
193 98 277
215 99 306
230 99 321
23 98 43
25 100 47
26 100 52
37 99 79
44 100 87
67 100 115
80 99 136
103 99 166
117 99 183
142 100 215
161 99 237
177 99 258
187 99 269
20 100 30
32 100 72
41 100 83
122 99 189
172 100 251
196 100 280
201 100 287
212 100 302
56 101 99
73 100 123
78 101 132
91 101 148
97 100 157
100 101 162
125 101 192
129 102 197
233 101 323
246 101 332
31 102 68
49 102 90
75 102 127
102 103 165
114 102 179
127 103 194
157 102 231
163 102 240
181 102 261
184 103 266
198 103 283
214 102 305
227 103 319
26 103 50
27 103 57
42 103 83
52 103 94
64 103 113
69 102 118
77 103 129
88 104 144
140 103 212
146 102 220
169 104 248
237 103 326
24 104 44
30 104 62
53 104 98
106 103 169
166 105 244
39 105 80
57 105 102
62 106 109
81 104 134
84 104 138
110 105 173
113 105 176
131 105 198
149 105 223
152 106 227
182 106 264
200 105 286
209 105 300
217 105 309
225 106 317
241 106 328
245 105 331
24 107 38
32 106 67
60 107 106
85 107 141
96 106 159
100 105 163
124 106 190
133 106 202
137 107 208
195 106 281
21 108 31
29 107 58
34 107 72
36 108 76
49 107 93
72 107 123
168 107 247
186 106 268
202 108 290
23 109 34
66 107 113
88 107 145
91 108 150
116 108 179
121 109 186
134 109 204
150 109 225
220 108 312
223 109 314
38 109 80
46 110 89
68 109 117
70 110 120
94 109 153
108 109 169
112 108 173
118 110 183
163 109 242
171 110 251
178 109 260
188 109 271
193 110 278
207 110 296
239 109 326
245 109 329
25 110 43
27 110 53
59 110 106
81 110 137
97 110 156
153 110 230
205 111 293
255 110 335
22 110 31
26 112 47
33 111 73
42 111 83
45 112 86
57 111 102
79 112 134
137 110 209
146 111 221
191 111 274
248 111 331
51 112 92
54 113 99
73 111 125
75 112 129
100 111 160
103 113 163
105 113 166
122 112 189
131 112 201
140 112 212
156 112 233
160 112 239
173 112 254
176 113 257
219 112 310
226 112 317
235 112 324
258 113 337
32 113 68
52 114 96
66 113 117
90 113 148
118 113 183
251 114 333
26 113 51
28 114 57
77 114 131
115 114 180
143 114 215
145 114 219
158 115 235
193 114 277
203 114 290
208 113 297
229 114 319
25 115 43
30 115 61
32 115 64
41 115 82
63 115 113
82 114 137
87 116 144
108 115 169
126 115 193
129 115 197
188 115 271
211 115 300
216 116 307
233 116 322
254 115 335
39 117 79
57 115 102
60 116 107
84 117 141
100 116 161
104 115 165
172 116 252
178 116 258
196 116 281
22 117 32
24 117 37
34 116 69
36 118 74
49 117 94
62 118 109
73 117 126
111 117 173
113 118 176
156 117 232
161 117 239
200 118 287
213 118 303
97 119 157
131 118 199
140 118 212
145 117 218
148 119 221
181 118 262
185 118 267
230 119 320
249 118 333
26 119 42
29 119 56
47 120 90
66 118 116
69 119 120
71 120 124
86 118 144
90 119 149
113 119 174
125 119 191
164 120 243
169 119 248
198 120 284
235 119 324
23 120 32
27 121 46
38 120 78
41 120 83
81 120 139
94 120 152
134 121 203
153 120 229
215 120 306
28 122 51
34 121 71
44 121 86
58 120 104
96 121 155
109 121 169
116 121 179
136 122 207
150 122 224
166 122 245
183 122 264
239 121 327
51 122 93
73 122 128
78 123 135
119 122 183
122 123 187
200 121 287
210 122 301
218 122 310
226 122 317
245 122 330
22 124 31
34 124 67
46 123 88
53 123 98
55 124 101
67 123 119
76 124 132
100 123 158
151 124 228
186 123 268
195 123 281
203 124 291
248 124 332
27 124 47
29 123 57
31 124 61
91 124 149
103 125 162
106 125 166
134 125 204
169 124 249
179 125 261
222 125 313
242 125 327
26 126 41
33 125 63
41 125 82
63 126 114
119 125 185
138 125 210
147 125 223
163 125 243
188 125 271
208 126 298
37 126 71
58 126 105
61 127 110
80 125 135
83 126 139
88 127 145
154 126 232
193 127 277
205 126 293
225 126 314
246 126 330
256 127 338
24 127 33
26 128 38
39 127 77
49 127 95
53 126 99
74 127 128
86 128 142
116 127 181
123 126 190
131 127 201
172 127 252
177 128 258
238 128 325
32 128 56
63 128 113
103 128 162
108 128 169
125 128 193
141 128 214
144 128 219
156 128 235
159 128 238
191 129 273
208 128 295
228 129 317
250 128 333
259 129 340
28 129 44
33 130 61
41 129 81
47 130 92
66 129 118
70 129 125
143 130 216
175 130 254
220 129 310
253 130 335
29 130 48
31 131 52
43 130 85
45 131 88
58 130 107
68 131 121
99 130 158
111 130 172
114 130 177
128 131 196
204 131 291
210 130 300
235 131 323
24 131 31
26 130 35
37 131 72
84 131 141
89 130 146
92 131 150
130 132 199
158 131 236
194 130 276
231 131 320
256 131 337
50 132 95
55 133 103
113 132 174
178 132 257
189 132 270
196 133 280
213 133 303
217 133 307
251 133 333
31 132 57
34 133 64
52 134 99
70 133 124
74 133 129
80 134 136
95 133 153
98 134 156
126 133 193
140 133 213
145 133 219
155 133 232
162 133 240
172 133 251
181 134 260
201 134 288
29 134 47
36 135 68
44 133 85
65 134 118
116 134 179
199 135 284
233 134 321
252 134 335
28 135 42
33 136 59
42 136 81
77 135 132
109 135 169
132 134 201
148 135 222
165 135 243
169 136 248
186 136 266
214 136 304
237 135 325
26 137 36
38 136 73
53 136 102
57 135 108
61 136 112
79 136 134
102 136 159
122 136 189
134 136 203
137 136 209
151 137 228
183 137 263
200 137 286
24 137 32
35 136 63
40 138 77
49 137 96
64 138 116
92 137 149
106 138 165
118 137 183
166 138 246
217 137 308
229 137 318
241 138 327
248 137 331
83 137 138
104 139 162
120 139 185
135 139 206
149 139 225
211 138 301
25 140 34
32 140 55
34 140 61
48 139 91
73 139 127
86 140 142
89 140 145
187 139 268
197 139 282
203 139 290
220 139 311
244 140 328
28 139 41
30 140 46
31 141 50
38 140 74
43 139 83
45 140 87
59 140 109
67 140 118
152 140 230
169 140 250
181 140 261
226 141 316
48 141 89
57 141 106
69 141 122
106 141 164
122 141 189
132 141 202
138 141 210
163 141 243
205 142 294
209 142 298
224 142 313
23 141 31
36 142 69
109 142 170
116 142 181
140 143 214
145 142 222
172 142 253
190 142 272
194 142 278
241 143 325
248 143 330
260 143 337
32 143 60
35 144 64
52 142 94
53 143 99
55 144 103
72 143 125
87 143 143
92 143 148
101 143 159
125 144 193
155 143 234
177 144 258
208 144 295
29 144 47
31 143 54
45 144 82
82 144 138
111 144 173
129 144 198
160 144 239
192 144 274
66 145 118
75 145 130
94 145 151
114 146 176
142 145 216
157 146 236
175 146 254
221 145 311
227 144 316
238 146 324
262 145 338
28 146 41
38 145 69
41 146 74
43 147 78
57 146 106
79 146 134
98 146 154
127 147 195
145 147 219
195 146 277
211 146 299
231 146 318
251 145 332
256 147 335
26 148 36
33 146 61
53 146 99
61 147 110
64 147 114
205 147 292
24 149 32
32 148 56
50 148 94
82 148 137
160 148 238
178 147 258
189 148 271
197 148 280
218 148 308
233 149 321
259 148 337
30 149 45
45 149 83
94 149 149
101 149 157
110 149 171
116 149 179
124 149 191
131 149 199
139 149 211
155 149 233
163 150 242
171 149 251
181 149 261
203 150 288
213 149 303
236 150 323
31 151 53
40 150 74
48 150 87
50 150 91
66 150 117
76 150 129
133 151 202
146 149 221
186 151 267
253 150 333
26 151 34
30 152 49
38 151 69
60 151 108
86 150 140
91 151 146
103 151 160
107 151 167
118 151 183
121 151 188
148 151 224
168 152 248
183 152 264
199 152 284
215 152 305
69 152 120
73 153 125
88 153 143
105 153 163
135 152 206
151 152 228
165 153 245
201 153 287
231 153 319
24 154 31
33 152 59
36 153 64
53 152 95
56 154 103
239 152 326
29 154 44
38 154 67
46 154 82
54 155 99
70 155 122
119 154 185
137 155 209
185 154 266
212 155 302
219 154 309
243 155 327
248 155 331
31 156 51
42 155 72
90 155 145
106 155 167
132 156 203
147 155 225
167 155 248
171 156 251
203 155 290
27 156 39
43 157 76
75 156 129
84 156 140
93 156 149
101 156 160
116 156 182
123 156 190
153 156 231
162 156 242
180 156 261
188 156 270
196 156 281
222 156 312
227 156 316
246 157 328
26 157 33
34 157 59
58 156 107
65 157 117
109 157 171
139 158 213
205 158 293
210 158 299
225 158 313
25 159 31
30 158 44
51 158 96
61 159 110
78 158 132
81 159 136
129 158 199
144 158 221
155 159 234
174 159 254
31 160 49
32 160 54
45 158 81
64 160 113
96 159 152
98 160 155
111 160 174
113 159 178
125 159 193
159 159 239
177 159 257
191 159 273
193 159 276
208 160 296
241 159 326
250 159 330
28 159 37
41 160 72
47 160 85
49 160 89
80 160 133
128 161 195
142 160 216
229 160 316
260 161 335
26 160 32
32 162 51
38 162 68
52 162 93
144 162 219
157 162 235
211 161 298
222 161 310
254 161 332
67 162 117
175 162 254
206 162 292
238 163 324
30 163 45
34 162 59
37 163 64
60 162 107
74 163 128
83 162 138
93 163 148
98 162 154
101 163 157
109 163 170
179 163 259
191 163 272
196 163 279
214 164 301
232 163 319
262 163 336
47 164 84
54 164 96
57 165 102
69 164 121
86 165 141
115 163 178
123 164 190
130 164 198
138 164 210
146 164 222
154 164 232
161 163 240
171 164 250
219 164 307
235 165 322
256 165 334
40 164 67
55 166 99
71 166 124
89 166 144
103 165 161
106 166 166
117 165 182
164 166 242
182 165 262
187 165 268
198 165 282
202 166 287
216 166 304
30 166 38
29 166 31
42 166 72
45 167 80
132 167 202
135 167 206
150 167 229
30 168 35
31 167 44
35 167 60
43 168 76
104 168 164
118 167 185
148 168 226
167 168 246
184 168 265
199 168 285
238 167 324
257 167 335
32 169 49
59 168 106
73 168 128
86 168 142
136 169 209
169 169 249
231 168 319
242 169 327
252 169 333
33 170 54
53 169 95
56 168 101
67 168 120
76 170 131
92 169 147
120 169 189
215 169 303
219 168 308
46 170 85
62 170 111
83 170 139
100 170 160
107 170 168
132 170 204
150 170 229
186 170 268
202 170 288
30 170 31
40 171 71
44 170 79
50 171 89
65 171 114
109 172 172
115 171 181
144 171 223
163 171 243
181 171 261
197 171 282
205 172 292
222 171 311
228 172 316
246 171 328
249 172 330
31 173 45
30 174 38
33 172 51
52 173 92
79 172 133
94 172 151
98 172 156
123 172 192
129 173 200
136 172 210
153 172 233
171 172 251
189 172 272
211 172 299
34 172 59
38 173 65
82 174 136
96 174 153
113 174 176
138 173 214
160 174 240
225 173 313
48 174 84
61 174 106
63 173 111
67 174 118
111 175 172
142 175 219
175 175 254
178 174 258
192 175 275
194 174 279
208 174 294
41 175 69
55 175 95
76 175 129
126 175 195
140 176 216
156 175 235
228 175 315
243 175 325
249 175 329
30 176 33
32 176 41
36 177 60
43 176 74
57 177 99
58 177 102
100 176 157
129 176 198
159 176 237
211 176 297
253 176 331
33 178 46
45 177 79
70 177 122
72 178 126
85 177 140
92 177 148
108 177 169
177 177 255
223 177 310
231 177 317
260 178 335
30 179 30
32 178 36
34 179 51
102 178 160
114 177 178
122 178 190
190 178 272
195 178 278
206 178 291
238 179 323
256 179 333
34 180 56
87 179 143
106 180 166
116 179 182
131 179 202
137 179 212
144 178 221
154 179 232
163 179 240
172 179 251
180 179 259
197 179 282
214 179 300
234 180 320
262 179 338
31 180 32
43 180 76
57 180 99
60 181 106
70 180 123
89 181 146
119 181 187
147 181 224
187 180 269
219 181 307
41 181 71
46 181 83
54 181 94
74 182 129
103 182 163
133 182 206
135 182 209
151 181 229
166 181 244
169 182 247
182 181 263
202 182 288
216 182 303
257 181 335
32 182 46
51 183 91
66 182 118
117 183 184
148 183 226
185 183 266
199 183 285
237 182 322
34 182 52
34 182 59
39 183 66
49 183 87
62 184 110
83 183 140
92 183 149
32 185 40
37 185 62
51 185 88
64 184 113
77 184 132
100 184 159
107 183 167
167 184 245
218 184 306
232 185 319
242 184 326
253 184 333
80 185 135
95 186 152
109 186 171
115 185 180
121 184 189
123 186 191
130 185 203
135 185 209
151 185 229
182 185 263
202 185 287
32 186 35
41 186 70
98 186 155
137 186 213
146 186 223
163 186 241
171 186 249
187 186 269
205 187 291
213 186 301
222 186 310
245 186 327
32 187 30
33 187 45
47 187 82
54 186 93
60 187 105
63 186 109
127 187 198
155 187 233
179 187 260
196 187 282
229 188 316
249 188 330
33 188 38
35 188 58
37 187 63
42 189 74
56 188 96
66 187 116
97 188 153
112 188 174
114 189 177
125 189 194
139 189 215
143 188 220
174 188 252
190 188 273
225 188 312
33 190 50
44 190 78
68 189 120
74 188 128
80 188 134
82 188 138
158 190 235
161 189 238
208 189 294
211 189 297
32 190 33
57 191 100
70 191 124
92 190 149
142 191 217
177 190 255
193 190 275
228 191 313
245 190 326
32 192 46
85 191 141
101 190 157
109 191 168
128 191 197
179 192 257
196 192 278
251 191 330
31 191 30
33 192 55
39 192 71
88 193 144
115 191 177
123 192 191
161 192 236
210 192 295
223 192 310
42 192 77
45 193 82
55 193 95
59 193 104
68 193 121
103 193 160
106 194 165
117 193 181
130 193 201
137 193 212
145 193 221
155 193 231
173 193 250
190 193 271
232 193 317
241 194 324
254 193 332
261 194 336
34 194 60
33 194 51
37 195 66
61 195 108
72 194 127
120 195 186
165 194 240
205 194 290
214 193 299
235 195 319
31 195 41
35 195 63
48 195 85
52 195 89
65 195 116
85 195 141
134 196 207
148 195 224
182 195 261
197 194 280
216 195 302
220 195 307
257 196 334
31 196 35
63 197 111
91 196 147
104 196 162
118 197 183
132 197 204
151 197 227
168 197 243
170 197 246
186 196 267
200 196 283
203 197 286
238 197 321
263 196 337
36 197 62
54 198 91
75 197 130
80 197 137
184 198 263
217 198 304
31 198 30
32 198 38
39 198 69
64 199 114
78 199 133
93 199 150
99 198 157
107 198 167
258 198 335
32 199 45
33 199 57
42 200 73
47 199 82
109 200 170
115 199 179
121 198 187
134 199 207
148 199 224
201 199 284
234 200 319
241 199 324
32 200 33
32 201 49
35 199 60
61 199 105
96 201 153
122 200 191
129 200 201
137 200 211
154 200 229
168 200 243
221 200 309
253 200 333
43 201 77
56 201 95
75 201 129
81 201 136
113 201 175
144 201 221
164 201 240
173 201 249
181 201 260
186 200 267
189 201 270
197 201 281
205 201 290
214 201 302
244 202 327
32 203 53
31 202 29
57 202 99
59 203 102
66 202 117
111 203 171
125 203 194
127 203 197
139 202 214
157 203 232
224 202 314
228 202 316
231 203 318
41 203 73
71 203 125
84 204 139
93 203 148
99 203 155
142 204 217
176 203 252
179 204 256
192 203 274
207 203 293
212 204 298
225 204 312
248 204 329
32 204 46
45 205 82
68 205 121
161 204 235
195 204 277
252 205 331
32 205 58
38 205 69
89 205 144
108 205 168
114 205 176
127 205 195
163 206 237
210 205 295
32 206 39
33 205 52
35 207 62
47 207 86
52 206 92
59 205 103
61 206 107
86 207 141
102 206 159
117 206 180
123 206 190
130 207 200
140 206 214
178 206 253
194 206 274
227 206 313
230 206 317
245 207 326
37 208 65
70 206 124
105 208 164
146 207 220
157 207 231
213 207 298
33 209 43
33 208 33
50 208 88
65 208 118
73 208 128
102 209 161
119 209 183
121 208 187
136 208 209
174 208 249
182 208 258
190 208 270
197 208 278
207 208 291
223 208 309
232 208 316
250 207 330
35 210 58
63 209 109
64 210 113
83 209 138
131 210 203
149 210 223
154 209 227
165 208 238
167 209 240
254 209 332
261 210 337
33 210 38
33 210 28
36 210 62
39 210 68
47 210 83
76 211 131
89 209 144
91 210 148
133 211 207
184 210 262
187 211 266
200 210 282
204 210 287
215 210 301
235 210 319
238 211 322
241 210 325
33 212 47
41 212 72
53 210 92
79 212 135
99 211 158
151 212 225
169 212 243
172 212 246
220 211 306
257 212 334
34 211 34
44 212 78
55 212 96
60 212 104
105 211 164
107 212 167
116 212 180
121 212 187
202 213 284
217 213 303
263 212 339
33 214 54
65 212 114
78 213 131
94 213 150
97 214 154
136 213 210
186 213 264
259 213 336
32 215 50
34 213 28
42 215 74
57 215 99
67 214 117
109 214 171
113 214 176
123 214 190
129 214 201
146 214 221
155 214 228
235 214 320
240 215 324
40 215 70
73 215 126
82 215 136
96 216 151
112 216 173
139 216 213
166 215 239
171 214 245
181 215 260
189 215 269
199 215 281
205 215 288
221 215 308
32 216 45
45 216 81
69 217 121
125 216 194
127 217 197
158 216 231
174 216 250
214 216 301
243 217 326
254 216 333
33 217 58
58 218 103
70 218 124
85 217 138
91 217 146
142 217 215
145 218 218
207 217 292
225 218 312
231 217 318
32 218 41
32 217 53
37 218 68
54 218 93
99 218 155
108 218 168
115 218 176
161 218 233
164 219 236
177 218 252
179 219 256
192 218 273
195 218 277
211 218 297
32 220 37
36 219 62
48 220 84
88 220 142
102 219 159
210 220 294
228 220 314
240 218 322
246 219 328
250 219 330
51 220 88
60 220 106
67 220 118
105 220 164
123 219 188
129 220 199
138 220 211
194 221 274
32 221 32
38 221 65
71 220 125
73 221 127
85 221 139
117 221 180
145 220 217
157 221 229
231 222 316
248 222 328
32 222 27
34 222 44
35 222 58
62 223 110
64 222 114
103 222 161
119 223 183
131 223 203
148 222 220
164 222 235
174 222 248
179 221 254
191 222 270
213 222 297
40 223 70
46 223 81
82 223 136
90 223 146
121 225 186
134 224 207
154 224 225
167 223 238
182 223 258
198 223 278
207 223 290
225 223 310
243 224 325
253 223 331
33 225 26
33 223 37
33 225 49
34 224 54
50 223 86
52 224 91
76 224 129
100 224 157
150 225 222
171 225 244
188 224 266
234 224 319
33 225 31
41 226 73
43 226 78
79 226 132
106 224 166
169 226 241
184 226 262
200 226 282
203 226 286
216 225 301
221 225 307
256 225 333
262 226 337
54 227 94
60 226 104
64 226 113
93 226 149
97 227 153
108 226 169
114 226 177
132 226 203
186 227 264
237 227 321
241 227 324
33 227 27
57 228 99
122 227 189
153 227 224
218 228 304
264 227 339
33 228 45
33 228 52
67 228 116
75 228 127
96 228 150
111 229 172
129 228 198
135 227 209
147 228 219
156 229 228
173 228 247
201 228 284
258 229 335
33 230 57
39 229 70
42 228 77
44 229 81
55 230 97
82 228 134
125 230 192
166 229 239
170 228 242
188 229 268
33 231 39
69 231 119
72 230 123
92 230 146
99 230 154
127 231 195
138 230 212
181 230 259
185 229 262
198 230 280
205 230 289
215 230 301
221 229 308
235 230 320
240 230 324
262 229 337
35 231 61
38 231 65
47 232 83
85 231 137
108 231 167
114 231 175
142 231 214
145 231 216
159 231 231
162 231 234
176 231 251
191 232 272
244 231 326
254 232 333
34 232 35
52 232 92
58 232 102
87 233 140
89 233 143
102 232 157
195 232 277
208 232 292
224 232 311
231 233 317
34 234 44
35 234 56
37 233 61
105 233 163
123 233 188
179 233 253
194 234 274
211 234 297
247 234 328
34 235 30
35 234 38
49 234 86
51 235 89
67 234 117
71 233 123
103 235 160
117 234 179
129 233 196
161 234 232
227 234 313
251 235 330
39 235 67
60 235 106
73 235 126
120 236 184
131 235 199
138 235 209
143 234 213
146 234 217
157 235 227
209 235 293
35 237 32
35 236 58
64 236 112
83 236 136
88 235 142
149 236 219
166 236 236
175 236 248
181 236 257
191 236 270
230 236 314
34 238 48
41 238 70
46 237 81
62 237 108
76 238 129
91 237 146
101 237 157
118 238 180
133 238 203
154 238 223
171 238 244
197 237 277
246 237 326
251 237 329
34 238 53
51 238 88
79 239 132
106 238 165
151 239 221
168 238 240
184 238 261
188 239 266
206 238 289
213 237 298
224 238 309
233 238 317
255 239 331
36 239 30
42 240 74
44 240 78
52 240 92
94 240 149
97 239 153
136 240 206
199 239 281
216 240 301
59 240 103
108 240 168
114 240 176
121 239 186
130 241 199
170 240 242
185 241 264
203 241 286
241 241 323
33 241 43
65 240 112
75 241 126
96 242 150
123 241 188
219 242 304
221 242 307
236 241 319
258 241 333
263 241 336
266 242 338
33 242 51
39 242 69
54 243 96
56 243 99
67 242 115
80 241 132
82 242 135
111 242 171
134 241 203
148 242 218
154 241 223
157 242 227
201 243 283
33 244 37
33 243 56
43 243 77
68 244 118
71 243 122
92 243 145
126 244 192
128 244 195
138 242 209
165 243 237
172 243 247
182 243 260
188 243 268
239 244 322
34 244 32
37 245 64
85 245 138
99 244 154
142 245 211
145 245 214
204 245 289
35 246 59
36 246 28
50 245 91
88 246 141
108 245 166
114 245 174
159 245 230
163 246 233
175 246 251
179 245 256
191 246 271
197 245 279
215 245 300
220 244 306
243 245 325
259 245 333
264 244 336
45 246 81
54 245 98
57 246 102
102 247 158
105 246 162
128 246 194
224 246 311
233 246 318
34 247 40
65 247 115
70 246 121
123 247 187
161 248 231
178 247 253
193 247 273
196 248 276
208 247 292
246 248 327
254 248 331
36 248 33
36 249 56
38 248 63
37 249 30
47 248 84
49 249 88
72 248 124
104 249 160
117 248 178
121 249 184
131 248 197
139 248 208
146 247 214
211 249 295
34 250 45
39 249 67
59 249 106
62 249 110
82 249 136
86 248 139
90 249 144
119 250 181
149 249 217
157 249 226
165 249 235
175 249 248
181 250 256
213 250 297
228 249 313
250 250 328
49 251 86
75 250 128
134 251 200
136 251 204
231 251 315
34 252 50
37 251 30
45 251 79
61 252 107
78 251 130
92 252 147
100 251 155
106 251 164
151 252 220
154 252 223
167 251 239
172 251 245
191 251 269
196 250 275
38 252 31
40 252 70
51 252 91
183 252 259
199 252 278
207 252 290
225 252 309
247 252 325
34 254 53
42 254 75
57 253 102
95 253 150
115 253 176
121 252 184
135 253 202
169 254 242
187 254 264
213 252 297
253 253 329
33 254 42
53 255 94
64 253 112
74 254 125
109 254 168
123 254 188
130 254 197
185 255 262
201 255 282
203 255 286
216 254 300
234 253 317
257 255 330
34 255 49
34 256 38
54 256 98
67 256 115
80 254 132
98 256 152
112 255 170
138 255 207
149 255 219
154 254 224
156 256 227
220 255 304
237 255 319
241 255 322
38 256 30
41 256 72
69 257 120
82 256 134
91 256 144
126 257 190
166 256 238
172 256 246
261 257 333
33 257 54
36 258 34
38 257 66
129 258 194
141 257 210
217 258 301
265 257 336
43 258 77
51 258 92
85 259 137
87 259 140
108 258 164
114 258 173
145 258 213
159 258 230
163 259 233
182 258 258
187 257 266
190 259 269
199 258 280
203 257 286
238 259 320
34 260 58
36 260 62
35 260 38
54 258 97
56 259 102
66 259 116
101 259 155
148 261 215
175 259 249
206 259 289
222 259 307
38 260 30
44 260 81
48 261 87
103 261 158
105 261 161
123 260 186
128 259 191
161 260 230
178 260 252
196 261 275
214 260 298
234 260 318
243 260 324
258 261 332
34 262 42
47 262 83
59 262 105
62 261 112
71 260 122
117 261 177
131 260 195
141 261 208
181 262 254
193 261 271
209 262 292
262 260 334
36 262 59
61 263 108
73 262 125
80 262 134
86 261 138
89 262 143
119 263 181
133 262 198
147 262 214
158 262 227
225 262 310
230 262 314
246 263 326
137 263 204
165 262 235
175 263 247
196 263 274
212 263 294
228 264 311
33 265 46
34 263 54
39 264 65
76 264 127
92 265 146
99 264 154
104 263 160
150 264 218
154 264 223
250 264 327
254 264 330
34 266 43
44 265 78
49 264 87
79 266 130
107 265 164
117 265 177
135 265 200
152 266 220
168 265 238
171 265 242
182 264 255
190 265 267
208 265 288
33 267 50
40 267 69
51 266 92
57 266 102
62 265 109
64 266 111
95 266 149
121 266 184
184 266 259
199 266 277
215 266 296
225 266 307
232 266 314
41 268 74
110 268 167
113 267 172
132 267 196
246 267 324
33 268 47
53 269 95
66 268 115
73 267 123
124 269 187
138 268 206
169 268 239
186 269 262
201 269 280
204 269 284
222 268 304
253 267 327
33 269 41
54 270 99
69 270 119
82 269 133
91 269 143
98 269 151
112 269 169
129 269 193
147 269 217
154 268 224
157 269 227
218 269 300
235 269 316
242 270 321
256 269 329
34 270 37
38 270 67
127 271 189
141 270 209
165 270 235
173 270 244
220 271 302
264 271 332
32 270 53
36 272 32
41 270 74
42 271 78
84 272 136
87 272 140
100 271 154
107 271 163
144 271 211
182 271 257
189 271 265
238 272 318
259 272 330
34 272 57
36 272 62
38 272 29
50 272 91
52 271 96
67 272 115
115 272 173
160 272 228
176 272 248
199 272 278
204 271 284
206 272 287
267 273 334
44 274 82
56 273 102
103 274 158
124 273 185
130 273 193
163 273 231
180 273 252
191 273 268
223 273 305
35 275 37
46 275 85
63 274 111
71 273 121
117 274 176
140 274 206
148 274 214
179 275 249
215 274 297
218 273 301
242 274 321
262 274 331
36 275 59
38 275 31
37 276 65
48 277 88
59 276 105
73 275 124
81 275 133
86 274 138
89 275 142
120 276 180
133 275 196
195 275 271
197 275 274
209 275 289
234 275 316
33 276 53
33 277 41
61 277 107
99 276 155
137 277 201
150 277 217
158 276 225
212 276 292
226 276 308
245 276 323
256 277 329
76 277 127
105 276 161
119 277 177
166 276 233
176 277 245
182 277 253
230 277 312
32 279 49
39 279 68
43 278 77
47 277 83
79 279 130
92 278 145
96 278 151
107 279 164
134 279 198
153 279 220
168 279 237
192 278 266
198 278 273
229 279 309
249 279 325
32 280 44
49 279 87
57 279 101
61 279 106
95 280 148
115 279 173
172 279 241
208 279 287
252 280 327
40 281 72
50 280 91
64 280 110
73 280 123
122 279 183
155 281 223
170 281 239
185 279 256
189 280 262
200 280 276
215 280 294
32 282 40
52 282 94
110 281 166
113 282 169
125 282 186
130 281 194
138 280 203
149 281 216
187 282 259
205 281 283
225 281 306
232 281 313
32 283 48
37 282 67
54 283 97
66 282 114
69 282 118
81 282 133
140 282 207
202 283 279
217 282 297
247 282 323
34 284 36
89 282 141
94 282 146
97 283 150
127 283 189
145 283 212
166 283 235
221 283 302
253 283 326
40 283 72
41 284 77
68 285 116
84 285 136
107 284 162
143 284 209
158 284 226
173 284 243
189 284 262
219 285 300
236 284 315
242 284 320
256 284 328
33 285 55
36 285 31
35 285 62
38 286 28
48 285 90
100 285 153
115 285 172
123 285 183
184 285 255
204 285 282
262 286 330
266 286 332
43 286 80
51 285 95
55 286 100
86 287 138
103 287 156
105 287 159
130 286 192
161 286 228
163 287 231
176 286 246
200 286 276
238 287 317
35 287 58
35 288 36
46 288 85
64 287 111
71 287 121
119 288 176
121 288 180
141 287 205
146 287 212
179 288 248
191 287 266
207 287 286
216 287 297
259 288 329
81 288 132
133 288 196
181 288 251
196 289 271
222 287 303
241 288 320
33 290 41
33 289 52
37 290 64
38 289 30
58 289 103
61 290 106
74 289 124
78 290 128
89 289 142
136 290 200
149 289 215
157 289 224
194 290 268
213 289 293
225 289 306
264 289 331
44 290 79
99 290 153
104 290 159
165 289 232
167 291 234
210 291 288
233 290 314
245 291 322
267 290 333
32 291 46
42 291 75
48 291 87
76 291 125
93 292 146
116 291 173
120 290 178
134 292 197
151 292 218
154 292 221
176 291 244
228 292 308
237 290 317
257 291 329
32 293 42
39 293 68
107 292 162
122 292 182
170 293 237
182 291 251
197 292 271
212 292 291
40 294 72
51 294 91
56 293 98
60 292 103
64 293 109
73 293 121
91 294 142
96 294 149
112 293 167
130 293 193
172 294 240
185 293 254
191 293 264
231 293 310
249 294 323
253 294 326
79 294 129
110 294 164
125 295 186
137 293 202
200 294 274
207 294 284
231 294 308
33 295 38
52 296 94
66 296 112
70 295 117
95 295 146
128 296 190
139 295 205
147 295 215
153 295 220
187 296 257
189 296 261
215 295 294
226 295 305
31 296 48
35 296 34
37 296 66
68 297 115
82 296 132
88 296 139
156 296 224
167 296 234
202 297 277
204 297 281
234 296 312
37 297 29
40 297 72
97 297 150
106 297 160
113 297 167
127 297 187
142 297 208
144 298 211
171 296 239
218 298 297
222 297 301
245 297 320
252 296 325
33 298 53
34 298 61
36 299 33
41 298 76
49 298 89
84 299 135
116 299 171
162 298 231
174 298 243
183 298 254
237 299 315
255 298 327
35 300 57
55 298 98
101 299 154
104 300 157
123 299 181
159 299 227
188 299 260
241 300 318
43 300 79
46 300 84
64 300 110
70 299 118
87 301 138
130 299 191
177 301 245
191 300 264
200 300 275
204 300 281
220 300 299
259 301 329
264 301 331
34 301 37
38 301 28
58 301 101
61 302 105
118 302 174
120 302 178
139 301 203
144 300 210
162 301 229
180 301 248
207 302 284
33 302 51
36 302 61
45 302 81
72 302 121
80 302 130
132 302 195
147 302 214
182 304 250
197 302 270
215 302 294
223 303 303
238 302 316
32 304 41
60 303 102
89 303 141
97 303 151
102 302 156
106 303 160
134 304 198
155 303 223
194 303 266
243 304 320
37 305 65
42 304 76
75 304 124
77 305 127
149 305 217
165 304 232
175 304 242
210 305 287
213 305 290
233 304 313
259 304 330
264 304 331
32 306 45
39 306 69
49 304 86
93 305 144
95 306 148
109 306 163
114 305 170
119 304 177
122 305 181
152 306 220
168 306 235
180 304 246
197 305 269
227 306 306
40 307 72
56 306 97
63 306 107
130 306 194
136 306 202
182 305 250
191 306 261
247 306 322
51 308 90
72 307 118
111 307 165
124 307 184
170 308 238
185 308 253
199 308 272
230 307 308
251 308 325
254 307 327
32 307 40
33 308 34
53 309 93
65 308 110
79 307 126
81 309 129
127 309 188
146 308 214
188 309 257
207 308 283
212 307 289
31 309 48
37 309 65
68 310 114
89 309 139
94 308 145
97 309 148
108 309 161
138 309 205
150 308 218
153 309 223
215 309 292
224 309 303
36 310 30
38 311 25
39 309 70
83 311 133
99 310 151
114 310 168
126 310 185
141 310 208
143 310 211
164 310 233
168 309 235
202 311 275
233 310 311
246 310 321
33 312 53
34 311 58
41 312 74
48 311 86
66 312 112
85 312 135
105 311 157
157 312 226
172 311 241
185 311 254
204 312 278
218 312 295
221 312 299
253 311 326
52 311 92
55 312 97
102 313 153
116 313 172
123 312 180
160 313 228
241 312 318
34 313 55
34 313 34
44 314 78
46 313 82
62 313 107
120 314 176
129 313 191
176 314 244
181 313 250
189 312 260
236 313 314
38 314 26
57 314 100
69 313 117
81 314 131
137 314 202
142 313 208
144 314 211
199 314 273
203 314 276
219 314 297
239 315 316
256 314 328
261 315 331
32 315 48
39 314 24
46 316 80
60 316 102
72 315 120
87 315 138
99 315 151
104 315 156
118 316 174
132 316 195
178 315 246
192 315 263
206 315 282
263 316 333
32 317 41
33 316 37
36 316 60
77 316 126
134 317 198
147 316 215
154 316 223
159 315 227
162 316 231
196 316 268
215 316 293
222 316 302
41 317 73
48 318 84
75 317 122
90 317 141
95 317 146
114 317 169
194 317 265
209 318 285
242 317 319
38 319 65
62 318 105
107 318 160
121 318 178
149 319 217
165 318 234
174 318 241
182 318 249
212 318 289
225 318 305
233 318 313
257 318 329
31 320 44
39 320 68
57 318 97
93 319 143
112 320 164
131 319 193
245 319 321
261 318 331
32 320 39
50 321 87
71 320 118
78 320 125
110 320 161
124 321 181
128 320 188
135 320 200
168 321 236
191 320 261
198 320 268
211 320 285
229 320 307
32 321 33
52 321 90
54 321 93
65 321 109
89 321 139
145 321 213
151 321 220
170 322 239
185 321 252
200 321 271
232 323 309
249 322 323
252 321 326
34 323 29
68 323 113
80 322 129
96 322 146
126 322 184
188 322 257
207 322 281
215 322 290
31 323 49
36 323 60
36 324 25
38 322 66
40 323 72
86 323 135
107 323 157
113 323 164
139 323 204
142 323 209
154 324 224
162 323 232
202 324 274
225 323 302
37 325 22
65 325 110
82 325 132
99 324 149
116 324 167
124 324 180
185 324 254
204 325 277
229 323 306
245 324 319
33 325 53
42 325 76
47 325 84
51 324 89
54 325 94
102 326 152
104 326 155
129 325 187
142 325 206
157 326 226
170 325 239
173 326 242
218 325 294
234 325 311
251 324 324
254 326 327
34 326 56
34 326 29
44 327 78
56 327 97
62 326 107
121 326 175
159 327 228
182 326 250
220 327 297
32 327 35
32 327 49
69 326 116
85 327 135
118 328 170
131 328 191
137 327 199
189 326 259
200 327 271
240 327 316
258 328 329
262 328 331
38 327 23
59 328 101
72 328 119
78 328 127
144 328 210
176 328 244
179 328 247
191 328 262
204 327 276
236 329 313
31 330 38
37 329 61
43 329 74
46 329 81
61 330 103
82 328 131
88 329 139
98 329 148
104 329 154
133 330 195
153 329 221
196 329 267
207 329 280
217 329 293
31 330 44
74 330 122
107 330 157
119 330 173
147 331 213
160 329 227
162 331 230
194 330 263
214 330 290
222 330 300
38 332 64
41 331 69
92 331 141
95 332 144
115 331 166
122 332 177
149 332 216
172 331 239
210 332 283
240 331 316
258 331 328
264 330 331
33 333 31
49 332 85
56 332 95
59 331 99
110 333 160
130 332 191
135 332 198
166 333 233
179 331 246
212 332 286
225 332 303
233 332 310
244 332 319
30 333 40
31 333 34
62 332 104
71 333 117
77 333 124
113 334 162
168 334 236
182 333 249
191 333 259
197 333 267
253 333 326
51 335 88
64 334 108
125 334 181
128 334 186
145 334 211
228 334 305
248 334 321
30 335 47
36 335 26
36 335 60
37 336 22
39 334 67
53 336 92
68 335 113
80 336 128
89 334 137
94 334 143
98 336 146
138 335 201
151 335 219
184 336 252
187 336 256
200 335 270
207 335 279
251 336 323
33 337 31
33 337 52
40 336 72
48 336 84
65 337 110
109 336 156
127 336 183
142 336 206
164 336 232
215 336 288
232 337 307
34 338 55
83 338 131
85 338 134
114 336 162
116 337 165
124 337 177
140 338 202
154 337 222
169 337 236
202 338 273
205 338 276
224 337 300
43 339 75
46 338 81
100 338 148
104 339 152
159 338 227
172 338 239
217 339 292
243 338 317
248 337 320
254 339 325
34 339 29
38 339 23
45 340 78
54 339 94
62 339 106
121 339 172
130 339 187
157 339 223
181 339 249
185 338 255
189 339 258
220 339 296
235 339 310
33 340 49
68 339 114
79 340 128
118 341 168
138 340 198
175 340 242
238 341 313
32 341 34
36 341 56
39 341 24
57 341 97
60 342 101
70 341 118
85 341 134
102 341 150
143 340 207
178 342 244
192 342 261
198 341 268
203 340 273
258 342 327
263 342 330
32 342 44
37 342 59
37 343 23
41 342 70
74 343 121
76 342 125
88 342 137
132 343 190
134 342 194
145 342 210
154 342 220
161 342 226
205 341 277
217 342 292
240 343 315
31 344 38
45 342 76
47 343 81
97 343 145
106 343 154
120 342 171
195 343 263
208 343 280
222 343 298
233 343 309
38 345 63
39 345 67
49 345 84
57 344 95
115 344 164
123 344 175
147 345 212
150 345 216
164 344 229
173 344 238
213 344 288
31 346 42
37 346 23
60 344 101
62 346 104
92 345 138
95 346 141
109 345 157
167 346 231
181 345 246
211 345 283
226 345 302
230 346 306
237 344 312
244 345 318
256 345 325
261 344 328
32 346 33
35 347 29
37 347 59
51 347 87
53 346 91
71 346 116
77 346 123
113 346 159
130 346 187
134 345 194
169 347 234
191 345 257
198 346 265
38 348 20
125 347 178
136 348 197
184 347 249
214 348 285
248 348 319
251 348 322
31 347 38
31 348 46
36 349 26
39 347 66
64 349 107
67 349 112
80 348 126
89 348 134
95 347 140
127 348 181
144 348 209
149 347 215
187 348 252
208 348 277
228 348 302
35 349 56
40 349 70
47 350 82
98 349 143
108 349 153
153 349 218
165 349 229
189 351 255
201 349 269
205 350 273
254 351 323
34 350 49
38 351 22
52 350 90
83 351 128
85 351 131
100 351 146
114 349 160
116 350 162
139 350 200
141 351 204
170 349 234
172 350 236
216 350 289
223 350 297
232 350 306
244 350 316
35 352 52
43 352 74
55 351 94
66 351 110
104 352 149
124 351 173
160 351 224
203 352 270
250 350 320
34 353 30
39 352 19
45 352 78
61 352 104
119 353 166
129 352 184
156 352 219
181 352 245
186 351 251
219 352 292
235 352 309
262 353 328
36 353 26
69 353 114
121 354 169
141 353 202
160 354 222
176 353 238
238 354 312
241 354 314
253 352 322
35 353 45
37 354 56
47 355 80
58 354 97
60 354 100
79 354 124
84 353 130
88 354 134
101 354 147
131 355 187
136 354 195
179 355 240
189 353 256
192 355 258
199 354 266
206 354 275
221 355 295
257 354 324
34 356 35
34 355 41
42 355 70
72 355 117
106 355 152
144 355 206
260 356 326
265 355 329
46 355 76
76 357 120
97 356 142
117 356 163
133 357 191
147 357 209
153 356 215
163 356 224
174 356 234
195 356 261
209 357 279
215 356 287
33 358 31
39 358 60
40 357 65
48 357 80
55 357 91
92 357 136
121 356 169
124 357 172
219 356 291
223 357 299
234 357 308
240 357 313
263 356 327
29 359 16
34 359 38
50 359 83
61 357 100
63 358 103
73 358 114
95 358 137
110 358 154
114 358 159
149 359 211
166 359 227
170 359 230
182 358 243
198 359 263
211 358 281
244 358 316
51 360 87
80 359 121
129 359 185
135 360 195
190 359 254
227 359 301
229 359 304
250 360 320
256 358 323
29 361 20
31 360 27
34 359 34
38 361 58
66 361 106
69 360 110
90 360 131
98 360 140
113 360 156
126 361 175
132 359 189
184 360 246
246 361 316
33 362 44
40 361 63
41 362 68
84 362 124
128 361 179
145 361 207
168 361 228
187 362 249
208 361 276
214 361 284
30 363 23
48 362 83
86 363 127
102 362 142
109 362 150
113 362 155
138 362 198
150 361 212
153 362 214
200 362 266
224 362 297
29 363 15
36 363 52
53 363 90
67 363 108
116 363 159
141 363 201
163 363 223
172 363 232
202 363 270
217 363 288
231 362 304
244 363 314
251 363 318
30 364 19
35 364 47
44 365 72
46 364 79
51 363 86
63 364 102
104 365 145
124 364 171
128 363 177
157 364 216
189 364 252
205 365 273
220 364 293
234 364 307
255 364 320
31 365 28
36 366 49
57 366 93
70 365 112
84 365 124
119 366 163
130 365 182
144 366 203
160 365 219
176 366 235
181 365 242
185 364 246
218 366 290
46 367 75
79 366 120
89 366 130
106 367 148
121 367 166
138 366 195
178 367 237
199 366 266
238 367 310
241 367 312
264 367 325
32 368 32
35 367 42
38 367 54
60 367 96
73 367 115
100 367 141
192 367 255
258 367 322
44 368 69
62 370 99
76 369 117
131 368 185
134 369 190
156 368 214
163 368 220
195 368 259
197 367 263
207 368 276
215 368 287
33 370 37
39 370 58
48 370 79
56 369 91
92 369 132
146 368 205
152 369 211
175 369 232
220 368 294
223 369 297
260 370 323
266 369 326
31 371 28
41 371 63
96 370 135
98 371 138
109 370 151
117 370 160
122 370 168
149 371 207
167 371 223
181 369 239
210 370 278
213 370 282
233 370 306
240 370 311
244 370 315
50 372 83
54 372 88
62 371 97
73 371 112
132 371 187
171 371 227
184 371 242
192 371 252
226 371 300
32 372 32
64 373 102
78 371 118
112 372 153
114 373 156
123 372 173
135 372 193
198 371 261
229 372 302
247 372 316
253 372 320
257 371 321
25 374 17
33 373 40
39 373 59
41 374 67
69 373 108
80 373 120
91 373 130
128 373 181
152 373 210
187 374 246
189 374 249
208 373 274
213 373 281
27 375 22
29 375 26
37 374 54
48 375 80
52 375 85
66 375 105
84 375 123
98 373 136
125 374 175
145 374 204
168 374 224
201 374 265
227 374 298
34 376 45
40 375 64
87 376 126
101 375 139
109 375 148
138 375 196
173 376 229
203 376 268
206 376 271
216 375 285
224 375 295
250 375 317
24 377 14
36 377 50
53 377 90
116 375 157
127 377 178
141 376 199
156 376 214
163 376 219
183 376 241
219 377 288
232 376 303
244 376 313
27 377 17
43 377 70
49 377 81
64 377 101
104 378 142
106 378 145
117 377 160
124 377 171
159 378 215
189 377 249
221 378 292
235 378 306
255 377 319
29 378 24
36 379 46
46 378 76
69 378 108
84 378 122
119 379 163
176 378 232
191 378 252
240 379 310
260 379 322
264 379 324
56 379 92
71 379 111
121 380 166
129 379 182
137 379 193
179 379 235
199 378 263
205 379 270
24 379 13
31 380 29
33 381 34
35 380 41
45 380 72
60 380 96
79 380 118
88 379 127
101 380 138
144 380 201
163 380 218
182 381 238
194 381 255
197 381 259
207 380 274
216 380 285
220 380 290
237 381 308
37 381 52
43 381 67
58 382 92
75 381 113
91 381 130
106 381 145
131 382 186
134 382 189
156 381 211
257 382 320
33 383 38
38 383 56
48 383 77
95 383 132
98 383 136
108 383 148
117 382 160
147 382 204
166 382 220
174 382 229
211 383 278
223 382 295
233 382 305
242 382 313
262 382 322
266 381 325
40 383 62
78 383 115
120 382 167
121 384 170
151 384 207
170 384 225
195 383 256
213 384 281
31 384 31
39 385 58
46 383 74
55 384 87
62 383 97
114 384 156
158 383 217
182 383 239
185 385 241
191 384 250
209 385 274
226 384 297
229 384 302
33 385 36
51 386 81
65 385 100
73 385 109
111 385 151
129 385 182
133 385 188
168 386 222
199 385 261
246 385 315
250 385 318
255 384 320
28 387 25
34 387 41
53 387 85
82 386 118
91 386 127
96 385 131
99 386 135
114 387 153
124 387 173
135 386 192
187 386 245
201 387 264
229 386 299
49 388 78
69 388 105
126 387 178
145 387 202
150 386 207
153 387 210
204 387 268
214 386 281
216 388 284
20 388 14
24 388 19
26 389 22
30 387 32
37 388 54
40 387 62
41 389 66
53 389 87
67 389 102
85 389 121
88 389 124
109 388 145
112 387 149
138 389 195
164 388 218
172 387 227
189 389 248
223 388 293
35 390 44
36 390 49
102 389 138
116 389 157
124 389 170
141 390 198
157 389 213
183 389 240
218 390 287
232 389 303
242 389 312
248 388 315
44 391 70
51 389 81
105 391 141
127 390 177
160 390 214
175 390 231
202 390 265
221 391 290
252 389 318
29 392 25
46 391 74
53 391 86
63 391 98
118 392 161
121 391 166
129 391 180
178 392 233
181 391 237
191 391 252
198 391 261
235 391 306
237 392 309
256 392 320
22 392 14
26 391 19
56 392 90
69 391 105
72 392 108
82 392 118
87 391 123
90 393 126
137 392 191
163 393 216
205 391 271
260 393 322
263 393 324
35 393 39
36 392 46
37 394 51
43 394 66
61 394 95
142 392 197
144 393 200
156 393 210
194 393 254
196 394 258
207 394 274
216 393 284
31 394 29
45 394 70
75 394 111
78 395 114
101 394 136
106 394 143
120 395 163
130 395 183
133 395 187
147 395 203
220 393 290
222 394 293
32 395 33
59 395 91
93 395 129
152 395 207
167 395 219
175 395 227
180 394 233
182 395 236
210 395 277
213 395 280
232 395 304
237 394 309
240 394 313
47 396 74
97 397 131
109 396 147
116 396 157
192 396 249
225 396 297
244 397 315
254 396 320
260 395 322
33 398 37
38 397 54
40 397 60
43 396 65
56 397 87
77 397 111
122 397 168
170 397 222
185 398 240
196 396 256
198 397 259
228 398 299
31 398 29
39 399 56
50 398 77
63 397 95
73 398 107
95 398 128
112 398 150
125 399 174
128 398 180
132 397 186
135 398 190
148 398 204
172 399 225
188 399 244
208 398 273
248 398 317
28 400 25
53 400 83
65 399 98
81 399 115
114 400 153
200 400 263
205 399 269
213 399 280
25 401 20
34 399 35
51 401 80
70 401 103
90 400 124
99 400 133
124 401 170
138 401 193
143 400 199
153 400 209
165 400 218
215 401 283
223 400 293
243 400 313
20 402 13
23 402 17
34 401 40
67 402 100
85 402 118
109 401 144
141 402 196
185 401 240
202 401 265
228 400 299
231 401 302
36 402 51
40 401 60
87 403 121
103 402 136
113 401 150
126 403 173
157 402 211
161 402 214
174 401 227
182 402 236
190 402 247
218 402 287
220 403 290
238 402 311
250 402 319
27 404 23
35 404 44
41 403 65
49 403 76
106 404 139
116 403 155
122 403 166
139 403 193
178 404 230
204 403 269
