ply
format ascii 1.0
comment Created by Open3D
element vertex 277
property double x
property double y
property double z
end_header
99 1 14
103 2 15
86 4 12
81 6 12
103 7 15
67 8 10
84 9 13
61 9 10
48 12 11
104 11 15
65 13 10
84 13 13
41 13 9
104 15 14
30 15 11
45 16 11
66 17 10
85 17 13
101 17 13
21 18 12
12 20 16
26 19 13
46 20 11
66 21 10
83 21 12
90 20 14
97 22 13
8 23 17
94 23 14
4 23 16
27 24 13
47 25 11
71 24 11
77 26 11
7 27 17
62 26 10
97 27 13
75 27 12
27 28 13
44 29 11
52 28 11
8 31 17
57 30 11
59 32 10
78 31 12
98 31 12
29 32 12
39 33 9
98 34 13
35 34 10
9 36 18
58 35 11
79 36 12
22 36 14
97 36 12
104 36 15
39 38 9
13 38 15
109 38 14
5 40 20
18 40 14
60 40 10
80 39 11
92 39 12
75 42 10
87 41 13
20 43 14
39 43 9
1 44 20
109 43 14
58 44 10
65 44 10
90 45 13
69 45 10
71 47 10
21 48 14
39 48 9
110 48 14
1 48 20
46 48 9
51 49 10
90 50 12
71 51 10
2 52 20
50 51 10
107 51 12
21 53 14
34 53 12
28 53 12
51 55 10
91 54 12
32 56 13
72 56 10
97 55 13
103 56 11
3 56 20
17 56 17
7 57 19
86 58 10
33 59 13
12 60 17
52 60 10
76 58 10
102 60 11
68 61 10
81 60 11
33 63 13
55 62 9
84 63 11
14 64 17
103 64 10
49 65 10
61 64 10
64 65 10
35 67 12
84 67 10
15 69 17
44 69 9
103 69 10
31 69 14
40 69 10
65 70 9
109 69 12
85 72 10
114 71 12
17 72 17
98 73 11
25 74 14
45 74 8
65 74 9
12 75 19
22 74 15
91 74 10
81 75 9
115 76 12
95 77 10
46 78 8
69 77 8
8 79 20
26 79 13
76 79 8
62 79 9
75 81 8
116 80 11
96 82 10
28 83 13
46 82 8
8 83 20
53 82 8
57 84 9
77 84 8
112 85 10
9 87 20
41 87 11
96 87 9
28 87 13
34 87 12
57 88 9
78 89 8
38 89 11
102 88 9
107 90 8
11 91 20
23 91 16
80 91 7
92 91 9
15 92 18
40 93 11
59 94 8
86 93 8
19 94 16
74 94 8
108 94 8
89 96 8
63 96 8
21 98 16
40 98 11
110 98 7
55 98 8
69 98 8
71 101 7
90 100 7
42 101 10
51 102 7
21 102 16
47 102 8
109 102 7
116 102 6
36 104 12
71 104 7
92 105 7
120 104 8
23 106 15
51 106 7
104 106 8
98 107 6
19 109 17
29 108 14
33 109 12
73 109 6
121 109 8
86 109 7
52 111 6
102 111 7
78 111 5
15 113 18
82 113 5
33 114 11
68 113 7
122 114 7
103 115 6
52 115 6
58 115 5
63 117 6
15 117 19
35 118 11
83 118 4
119 118 5
48 119 9
103 120 5
16 121 18
63 121 6
40 121 9
84 122 4
108 121 3
114 122 3
32 123 12
45 123 9
65 124 5
99 124 5
114 125 3
18 124 18
88 125 3
22 126 15
27 127 14
46 127 9
81 126 5
116 127 2
95 127 4
65 128 5
26 130 13
71 129 4
77 131 4
97 131 3
47 132 8
116 132 1
27 133 13
60 133 4
50 134 6
119 134 1
77 135 3
97 135 3
44 137 9
56 136 4
114 136 2
28 138 13
58 140 3
79 140 3
99 139 2
32 140 12
39 141 9
37 142 10
25 142 14
94 141 2
82 143 1
59 145 2
40 146 8
76 145 2
21 147 16
60 148 2
41 150 8
22 151 16
57 150 3
41 154 8
46 153 7
24 156 15
27 158 13
