ply
format ascii 1.0
comment Created by Open3D
element origin 1
property double x
property double y
property double z
element voxel_size 1
property double val
element vertex 2361
property double x
property double y
property double z
property uchar red
property uchar green
property uchar blue
end_header
-0.56284 -0.854466 3.74222
0.005
27 287 51 97 97 109
116 73 85 24 24 24
114 68 83 73 73 73
80 254 91 28 27 29
153 59 48 37 36 40
116 68 83 63 65 64
66 61 81 56 55 58
150 92 53 71 70 65
129 95 70 47 47 54
118 68 80 156 155 162
139 232 84 45 41 40
176 360 63 53 58 56
154 68 53 179 178 179
7 63 13 65 64 68
152 68 49 69 69 75
79 182 92 129 130 128
155 68 50 42 42 45
180 183 7 30 32 36
7 30 25 35 37 27
155 68 48 32 33 38
77 258 93 80 79 76
108 94 86 87 86 95
153 80 51 127 128 124
170 274 57 157 158 162
21 320 51 88 89 89
34 246 64 69 70 63
174 70 4 140 139 138
148 294 74 50 49 50
138 125 65 23 22 24
89 36 81 33 34 40
151 192 68 148 151 148
174 70 3 71 70 69
174 141 13 178 182 179
77 243 92 27 26 26
184 258 11 154 152 156
49 197 78 25 25 26
171 336 62 103 103 105
166 134 26 45 44 36
114 68 85 190 190 188
172 270 55 192 192 198
116 68 84 63 65 63
138 105 62 111 113 110
155 68 49 38 38 42
114 69 82 72 73 72
173 197 28 29 29 30
173 278 46 53 53 60
116 69 82 26 28 27
174 326 62 172 167 177
57 226 86 159 160 158
117 68 82 26 24 30
140 125 65 23 23 25
119 68 81 136 137 143
186 267 6 73 72 77
156 68 49 27 27 31
73 170 87 38 36 39
62 94 81 171 170 175
151 94 56 58 57 65
40 42 73 155 154 157
158 145 52 80 80 78
173 70 4 193 193 191
115 69 82 38 40 39
156 81 51 26 26 26
175 351 63 30 29 32
55 293 87 91 92 92
99 190 90 169 169 167
178 363 59 50 49 53
174 75 5 114 112 113
149 93 59 190 191 186
118 69 81 99 100 104
174 282 41 62 65 69
182 321 27 48 52 55
66 317 92 178 170 183
42 13 70 177 174 185
135 353 102 192 190 195
164 141 37 53 51 52
154 69 51 95 95 95
187 344 12 40 38 43
164 117 23 22 21 21
84 341 99 44 44 44
154 69 50 61 62 63
40 146 68 38 38 44
154 78 52 45 45 45
182 291 31 164 164 168
175 207 28 96 95 95
174 140 17 166 167 163
159 147 50 131 133 131
154 69 49 50 50 52
181 318 36 185 194 195
27 288 54 48 45 50
134 107 65 49 49 51
188 370 22 167 164 170
154 78 49 70 70 74
127 12 60 40 39 43
119 316 98 145 139 151
135 334 97 113 111 114
69 154 84 143 144 139
160 151 50 31 31 31
177 351 61 150 148 154
154 92 51 109 109 111
19 60 46 113 115 113
73 274 93 101 95 97
160 92 45 185 187 184
176 71 1 146 147 148
73 5 76 91 91 87
176 224 29 19 19 23
10 32 25 24 23 26
86 273 95 36 33 39
119 73 83 65 65 72
33 55 64 75 72 81
166 117 28 158 158 158
166 189 38 34 31 34
115 69 85 194 195 191
142 232 82 33 32 36
166 130 27 34 33 36
85 96 84 171 174 170
148 300 77 184 184 186
58 142 80 34 32 35
116 69 85 89 90 86
150 142 57 30 30 32
23 71 52 26 26 26
117 69 83 23 24 27
141 136 62 34 33 37
118 69 83 26 25 30
171 361 67 55 48 61
57 56 83 64 64 67
155 69 52 135 135 135
14 284 27 72 75 71
148 230 65 189 192 195
110 91 81 78 78 77
174 71 5 162 162 161
22 321 51 60 59 60
73 169 86 36 36 38
20 132 35 78 80 81
174 71 4 85 84 84
38 268 68 40 39 42
68 93 88 81 81 87
146 95 56 65 64 59
116 231 92 98 101 97
175 71 3 28 27 27
34 188 64 36 36 35
53 220 83 22 22 24
153 69 51 50 50 52
116 70 83 19 21 19
178 223 28 80 80 76
180 290 34 34 33 35
117 70 81 66 68 72
151 315 79 36 41 45
18 142 36 74 73 77
154 70 52 184 184 182
14 195 29 60 61 61
135 123 66 151 153 151
139 233 82 28 32 36
154 70 50 42 43 42
99 134 84 28 29 30
173 208 32 124 123 121
154 70 49 34 34 34
97 109 82 24 23 25
181 319 29 36 38 42
152 188 64 27 28 30
13 50 29 31 31 32
123 156 86 15 17 21
10 276 22 39 40 36
155 70 49 26 26 28
49 368 85 159 152 167
9 340 31 137 138 132
156 70 48 118 118 121
41 345 76 30 30 32
80 10 78 93 90 98
83 96 84 80 82 80
148 227 75 112 114 116
154 82 53 131 131 126
188 342 12 39 36 43
19 113 33 57 56 59
154 182 56 139 139 134
167 249 59 178 179 179
181 299 31 197 196 202
11 149 27 155 161 158
115 70 85 111 112 107
72 235 89 50 48 54
160 150 53 136 136 134
116 70 84 28 30 26
117 70 83 21 22 25
136 343 97 19 18 20
172 205 31 85 86 82
13 113 32 156 156 142
44 135 75 160 162 155
155 70 50 28 29 28
30 324 54 34 34 38
160 173 51 25 25 24
158 81 49 168 170 169
162 322 68 73 79 77
179 170 8 157 157 156
174 72 5 133 132 132
93 129 83 103 106 107
24 296 45 97 97 96
38 25 68 78 79 80
82 334 98 33 33 34
172 95 15 172 172 167
89 103 81 179 180 180
90 276 93 41 40 45
174 72 4 41 40 40
14 127 33 58 60 56
183 288 33 150 154 153
170 235 48 124 117 121
119 80 83 33 34 38
102 134 86 27 27 28
172 231 41 89 84 89
153 70 52 190 190 187
87 363 103 185 188 184
51 207 81 54 54 52
70 160 88 98 100 98
57 139 83 162 161 134
153 70 49 31 32 32
136 349 99 44 41 47
106 286 95 50 50 52
175 72 5 35 34 34
164 184 51 98 101 101
55 194 84 33 33 35
108 316 98 178 180 185
137 114 62 35 36 37
120 232 90 27 28 27
119 70 83 152 152 157
159 51 39 45 45 43
146 285 76 154 154 157
168 235 47 59 52 56
115 71 84 22 25 21
178 323 49 47 39 51
156 86 50 44 44 47
81 50 79 111 109 118
116 71 83 24 27 27
179 359 61 160 157 168
30 176 57 135 136 130
117 71 82 45 46 52
174 283 42 183 185 188
156 319 72 189 193 192
54 140 80 37 35 35
119 71 83 127 128 134
158 65 48 113 116 119
46 129 76 22 22 23
37 44 70 59 59 62
153 71 51 140 141 137
157 186 60 85 87 90
139 134 68 89 89 96
58 315 91 28 28 28
53 139 80 32 31 31
139 101 62 38 39 36
154 71 50 29 29 27
142 190 72 99 98 101
119 78 82 159 159 163
172 206 30 36 34 22
139 100 65 104 105 101
44 48 74 29 26 28
21 198 38 134 132 125
25 283 54 64 61 68
6 76 7 119 118 124
140 115 63 170 171 168
155 71 48 62 64 66
151 291 72 38 38 43
88 187 88 42 41 44
115 71 86 191 194 187
145 221 72 28 29 29
35 281 65 70 69 77
149 306 78 193 192 197
148 94 57 47 46 45
169 239 52 39 35 39
141 352 98 84 86 93
142 211 70 73 74 72
160 157 50 51 51 55
115 71 83 21 24 21
165 365 75 162 157 166
168 242 55 39 39 43
153 71 52 191 192 188
131 238 93 13 14 12
46 48 73 62 63 62
156 71 50 25 26 27
16 54 35 82 83 83
130 181 85 38 37 39
114 71 86 192 195 187
130 183 79 121 122 120
36 265 67 20 20 19
92 108 85 33 34 31
165 236 60 36 35 37
55 291 87 34 34 37
107 289 96 40 40 41
148 294 71 29 28 31
50 204 79 100 102 97
179 294 36 36 34 38
156 71 52 26 27 26
33 329 59 161 167 162
174 73 4 31 28 29
187 372 26 164 163 168
192 349 12 133 131 136
101 281 97 30 30 36
7 105 10 161 162 166
57 291 88 17 17 18
115 71 85 22 25 19
32 187 57 36 37 40
54 217 86 104 103 103
86 186 89 37 36 35
91 109 87 187 189 189
101 49 82 35 32 39
45 138 75 36 35 39
164 120 24 17 17 18
66 87 82 26 25 28
117 71 83 36 38 43
29 150 51 93 94 95
58 54 81 121 123 117
84 360 102 30 31 31
155 71 51 26 27 26
158 71 49 108 110 111
86 45 82 35 33 42
143 100 62 58 57 62
114 72 86 190 192 186
160 49 36 50 51 48
180 295 34 25 25 28
23 69 53 21 22 23
28 235 51 93 95 93
132 248 89 79 78 88
176 281 40 69 64 73
107 284 97 25 25 27
33 240 57 58 55 53
117 72 82 33 34 40
180 300 37 158 156 161
146 294 72 34 34 37
187 264 9 39 37 41
118 72 82 42 43 50
181 156 4 44 44 46
167 263 60 201 196 200
30 325 55 36 36 39
151 227 62 189 188 190
16 120 33 23 22 22
155 71 52 31 31 29
155 72 49 27 28 29
62 66 82 45 46 43
173 199 34 136 136 130
50 200 81 21 21 18
120 72 83 157 157 163
39 273 69 35 33 36
85 47 80 117 116 123
153 72 50 34 34 32
162 279 65 194 196 200
154 72 50 27 27 26
89 363 104 85 89 87
113 92 82 156 156 159
145 215 66 110 110 109
133 187 78 29 30 32
174 74 6 179 177 177
179 367 56 150 154 153
174 74 5 61 58 59
164 49 18 31 30 33
106 296 97 188 187 192
49 194 78 105 105 106
117 76 85 29 29 30
141 196 72 159 158 153
163 179 52 151 153 154
175 74 4 30 28 30
76 323 97 168 159 173
144 100 62 129 129 132
27 325 53 90 92 89
65 75 85 22 24 26
116 72 85 22 24 22
10 349 38 115 115 115
44 194 73 42 45 41
52 210 82 27 27 27
179 83 1 177 178 179
85 187 89 54 55 54
137 188 72 70 69 70
117 72 84 26 26 29
106 97 82 144 144 147
154 72 49 31 31 31
168 241 56 23 23 25
166 272 61 41 37 45
113 92 81 83 82 87
11 45 29 31 30 35
163 185 47 30 30 33
30 324 53 47 49 48
84 24 79 183 186 183
115 73 86 36 38 34
172 362 67 30 33 38
154 86 55 188 189 190
113 318 97 191 195 195
147 317 86 197 190 197
37 352 76 121 119 121
159 176 53 22 22 22
57 57 82 135 135 139
137 337 99 34 31 35
117 73 83 22 23 28
129 9 61 185 189 183
118 73 82 40 41 47
22 202 37 32 33 30
130 21 62 40 40 44
29 191 54 58 58 62
161 237 61 197 197 200
119 73 82 65 66 71
155 73 49 24 25 27
10 45 27 74 77 83
173 75 5 173 171 170
121 89 84 31 29 32
154 301 73 101 101 108
137 128 66 25 25 26
176 283 38 46 45 52
188 346 14 86 84 89
155 73 50 23 24 24
8 359 35 91 88 88
158 73 49 81 82 85
106 304 100 169 168 170
29 315 52 34 32 40
158 73 48 163 165 167
138 136 69 34 33 37
32 56 62 45 42 50
138 346 99 26 26 30
138 233 85 38 35 36
117 73 84 20 21 24
107 285 97 26 26 26
26 321 51 32 32 36
167 139 22 137 136 138
26 298 49 27 27 26
180 169 8 129 129 129
39 362 77 13 14 15
33 176 59 24 25 25
6 78 8 152 151 157
180 291 35 19 19 22
81 332 97 48 47 48
115 74 86 30 30 27
166 122 25 12 11 14
166 122 27 66 65 69
115 74 84 24 24 24
155 318 72 102 106 106
172 204 32 63 63 60
116 74 84 18 18 19
38 265 67 48 48 50
56 304 91 30 30 33
114 88 82 91 94 88
45 283 77 137 142 143
87 35 80 17 18 18
118 74 83 41 40 46
19 337 42 159 160 164
17 115 33 12 12 11
118 74 82 33 34 40
154 85 54 141 140 141
154 84 52 32 31 32
153 74 53 167 167 164
152 313 81 179 175 180
72 54 81 29 25 28
166 187 44 22 24 26
154 74 51 29 29 25
30 326 56 37 42 41
16 334 39 95 93 99
154 74 52 33 33 29
152 91 53 33 32 36
155 74 49 16 17 19
37 330 69 168 160 174
92 109 86 37 39 38
11 342 33 15 17 12
66 77 85 17 19 20
182 177 3 115 117 119
84 17 76 55 56 57
184 277 20 91 83 92
159 151 50 29 29 26
110 141 87 139 141 141
172 273 56 53 51 59
146 284 77 122 124 129
100 126 86 122 121 123
154 92 52 148 147 152
119 74 82 93 93 99
174 222 29 20 20 24
73 172 87 23 23 21
177 76 4 129 131 129
71 274 92 188 184 185
116 74 86 23 23 22
167 192 36 41 41 42
117 74 85 15 14 16
31 327 61 31 33 36
75 50 77 171 175 166
153 144 55 31 29 31
149 311 75 36 35 40
185 321 24 93 89 98
124 319 99 64 57 69
36 281 64 169 170 177
153 74 50 30 30 28
151 289 73 30 30 32
178 362 60 63 62 69
76 6 78 56 59 52
162 146 45 26 24 27
60 58 80 71 72 74
154 74 50 27 26 27
176 354 60 93 94 99
115 75 85 30 29 28
91 37 80 83 84 86
140 192 71 26 25 29
116 75 85 22 22 21
117 75 84 18 18 20
80 48 78 56 58 49
66 145 88 57 59 58
178 291 35 45 43 47
63 320 90 169 174 175
193 357 10 183 186 188
155 184 58 29 28 31
117 75 83 51 49 54
92 327 96 153 157 162
151 143 56 29 27 31
65 78 86 20 22 19
172 343 61 37 34 37
153 82 52 138 139 134
175 282 37 91 87 96
118 75 82 60 60 66
15 338 37 34 30 36
179 295 35 38 38 41
75 174 88 56 56 59
146 99 60 165 165 169
154 75 51 29 29 27
16 248 29 90 88 86
175 357 66 61 60 61
166 364 73 53 45 60
163 150 47 167 171 171
166 323 65 34 33 39
13 342 46 82 81 82
135 30 61 131 132 133
174 275 49 160 158 164
158 320 70 71 78 77
153 75 51 29 29 27
180 299 34 32 30 34
14 126 30 158 159 155
114 315 99 95 89 100
116 80 86 137 138 133
22 145 39 35 37 37
17 333 45 127 128 127
27 148 51 107 112 112
176 76 5 34 33 35
86 23 78 33 34 33
141 212 70 141 141 139
21 332 45 117 116 124
32 282 60 69 66 73
66 78 85 17 18 16
65 68 80 39 39 42
117 75 85 14 14 16
119 75 82 69 69 75
15 52 35 168 170 167
179 302 37 167 163 169
153 75 54 190 190 188
107 293 96 36 35 37
56 291 88 25 25 26
158 75 49 97 98 103
90 330 100 186 192 195
77 260 93 101 101 97
43 123 76 72 73 72
174 77 6 177 177 178
175 76 6 86 84 86
45 331 78 74 67 76
11 349 39 73 72 73
63 280 92 67 59 65
175 76 5 36 33 36
95 364 104 54 52 61
65 78 85 17 19 17
156 79 48 33 33 37
21 324 47 97 96 105
42 114 78 67 67 64
165 186 49 118 119 122
151 310 77 22 20 24
119 75 83 61 61 67
176 94 9 109 111 115
26 306 51 26 26 29
137 133 67 30 32 32
147 317 83 94 85 98
94 114 87 77 78 78
55 208 82 108 108 105
155 75 52 27 27 28
14 337 38 104 101 104
80 51 79 141 138 149
177 77 4 105 107 105
45 332 80 38 34 42
164 185 50 152 153 154
182 317 42 174 166 174
38 340 75 39 38 39
60 303 93 134 132 139
56 217 82 87 87 87
136 116 63 37 37 39
116 75 86 24 24 23
82 143 87 29 27 30
24 201 44 105 108 107
176 77 5 33 32 35
177 77 5 36 37 36
43 193 71 37 36 37
115 76 84 18 18 19
79 260 93 23 23 21
184 279 23 86 76 88
176 354 64 19 19 24
43 335 78 26 26 33
39 344 75 25 24 23
15 263 25 173 172 174
117 76 83 30 30 34
10 367 34 29 29 26
39 346 77 17 17 15
14 350 35 30 28 36
176 88 6 82 81 80
118 76 83 33 32 37
119 76 83 57 56 62
38 347 76 112 114 110
30 56 60 66 69 60
154 75 54 192 191 189
91 38 82 62 62 68
182 282 29 53 47 54
153 76 53 121 121 120
90 102 82 54 53 56
163 17 26 24 25 20
44 280 75 34 29 36
163 159 49 116 117 120
163 184 49 23 25 27
156 76 51 11 11 19
9 261 21 108 109 99
186 274 13 34 38 41
155 76 50 30 30 38
178 89 2 163 165 168
41 368 77 186 191 194
24 324 49 78 78 84
116 85 86 83 85 82
21 227 42 34 37 34
24 288 52 148 145 150
182 292 32 72 72 76
157 76 49 31 32 38
158 76 48 107 109 114
134 272 92 116 123 121
78 241 91 37 38 37
66 79 85 20 21 25
115 76 85 33 33 33
116 76 86 24 25 24
148 286 76 145 144 147
135 121 64 87 87 85
116 76 84 18 18 20
156 91 50 144 146 149
179 360 63 139 138 147
153 313 77 30 32 37
120 76 83 157 157 163
132 184 76 147 146 143
85 142 86 49 49 53
31 323 54 86 79 94
96 191 86 39 40 38
173 211 29 29 29 28
154 76 53 71 70 70
148 191 68 28 28 31
177 78 3 153 156 153
154 232 61 32 32 36
25 85 52 48 49 53
156 76 49 90 90 100
166 270 59 84 80 85
57 225 85 154 155 154
175 78 7 180 180 182
175 278 45 111 109 118
152 282 75 82 75 83
59 141 79 37 36 38
176 78 6 55 54 57
87 18 79 25 24 30
119 82 85 21 20 22
19 138 34 37 37 40
139 193 68 26 27 26
177 78 5 29 29 29
36 267 66 87 86 82
153 184 60 93 91 91
23 316 55 128 131 125
176 78 3 31 31 31
108 299 98 35 35 35
60 58 83 40 38 42
184 318 26 195 192 199
41 104 71 92 93 95
149 292 74 41 40 42
115 76 88 192 192 191
43 9 71 31 30 29
160 161 54 156 158 155
115 76 87 98 99 97
146 318 86 178 171 179
161 159 55 154 155 152
116 76 87 65 65 65
156 91 51 124 125 131
49 328 84 39 39 45
7 271 21 170 169 164
91 110 86 165 167 166
157 84 49 41 41 44
116 76 85 14 14 15
43 334 77 67 63 70
171 142 18 141 140 145
180 294 32 24 26 29
175 345 61 26 27 29
82 365 103 185 190 191
87 28 78 41 41 48
156 76 50 88 88 96
113 315 96 34 31 38
9 177 15 36 34 36
141 332 95 170 168 176
155 76 49 62 63 71
25 64 54 35 35 35
162 182 47 76 76 80
43 115 75 78 80 75
176 78 7 137 136 139
33 160 59 56 56 61
111 140 86 30 31 33
152 185 63 148 145 140
115 77 86 55 55 56
53 213 81 27 27 27
72 179 87 73 75 78
70 156 86 41 42 39
133 41 61 86 88 93
123 93 78 34 33 41
27 293 52 73 69 77
156 77 50 88 90 96
85 361 102 121 128 124
161 150 46 143 146 146
117 77 83 29 28 31
155 77 52 28 28 30
12 48 29 58 57 64
116 77 86 42 41 42
94 120 83 49 49 50
186 259 9 84 83 86
114 230 91 51 52 50
118 77 83 30 29 35
164 145 41 41 40 48
119 77 83 76 75 81
156 77 49 92 94 104
183 322 25 43 46 50
60 301 91 59 56 64
150 142 58 60 60 63
192 361 12 179 185 185
87 36 78 17 17 16
96 325 101 50 59 62
165 142 37 31 31 36
157 77 49 33 34 40
63 143 82 43 43 45
158 77 48 173 174 178
127 319 98 147 139 152
40 104 75 59 62 63
162 98 42 56 54 58
178 78 4 84 87 85
178 78 3 187 191 187
148 302 76 159 158 161
84 28 77 173 173 172
76 168 89 99 101 104
115 77 88 187 187 186
149 300 75 32 32 34
8 107 16 142 146 148
115 77 87 103 103 103
16 143 33 46 48 52
70 6 79 56 50 62
181 170 3 183 185 185
152 90 54 116 116 113
144 231 79 156 159 165
170 142 18 160 160 163
187 271 9 44 47 48
166 50 16 36 36 37
153 77 53 90 89 89
177 364 60 175 177 178
166 118 27 97 97 100
135 241 92 41 42 44
16 106 37 136 140 135
59 231 84 98 98 91
16 124 32 26 27 27
158 77 49 124 125 129
184 295 33 157 158 162
159 149 49 27 27 28
11 352 33 15 15 13
140 337 95 173 174 179
177 79 3 63 65 62
95 277 95 101 94 104
120 79 84 20 20 23
173 190 20 41 37 39
175 79 7 192 192 193
178 358 62 157 156 164
116 78 86 32 32 33
151 281 71 30 27 33
169 141 36 104 105 109
176 79 7 183 183 185
92 188 90 30 30 29
22 202 35 60 60 49
169 267 56 53 53 59
188 363 23 192 184 195
176 79 6 101 100 103
83 349 101 28 28 29
132 100 66 40 38 41
156 63 50 17 18 20
139 355 100 29 28 30
147 138 58 167 168 165
177 79 6 35 34 38
181 237 13 34 33 42
115 88 82 46 45 45
9 161 16 34 32 34
133 108 66 116 116 115
26 292 49 32 32 34
161 153 51 15 15 16
168 362 71 138 127 147
178 79 3 159 162 159
35 155 61 120 123 126
176 358 61 29 29 33
27 94 55 143 144 146
161 143 42 104 103 100
165 45 21 190 193 188
117 77 85 32 33 35
154 83 50 31 30 29
154 77 51 24 24 26
84 11 78 28 31 32
39 264 70 77 75 77
118 82 83 14 14 16
14 355 33 155 155 163
160 151 54 161 162 158
159 77 49 183 184 187
5 67 9 56 58 67
159 147 54 35 35 36
45 104 76 32 34 33
152 230 61 32 30 33
136 187 70 154 152 148
60 59 86 152 153 155
43 117 76 137 139 136
123 152 85 29 28 28
13 46 30 175 174 180
116 78 84 32 32 34
185 244 8 56 54 62
114 92 82 171 171 173
59 291 91 43 41 48
49 230 81 76 75 79
116 78 83 30 30 33
105 96 83 36 34 39
28 289 56 123 122 130
167 192 32 48 47 49
120 78 83 147 148 149
112 300 98 125 125 131
155 78 51 41 41 41
170 266 55 72 72 81
155 6 37 92 94 93
65 83 81 24 25 23
186 248 6 66 66 69
178 155 0 79 80 82
157 86 51 24 27 28
95 115 83 37 36 36
156 78 50 33 34 37
53 50 76 154 159 152
167 273 61 33 34 42
18 110 30 46 46 47
79 97 84 70 69 76
152 90 52 49 49 52
35 37 68 147 149 143
25 305 52 32 32 34
67 72 84 129 130 132
140 137 61 48 48 52
178 79 5 27 28 30
116 78 88 176 176 177
156 87 49 27 28 32
34 157 58 72 72 73
117 78 85 34 34 37
154 78 54 185 185 185
9 102 11 93 93 91
148 291 73 46 45 49
81 252 93 68 67 69
15 59 38 125 125 123
155 78 54 145 145 146
133 248 91 50 49 60
86 42 84 127 128 124
167 141 35 34 35 40
155 78 53 68 68 68
98 118 86 42 42 42
139 133 66 28 27 33
60 142 81 27 26 28
45 118 74 35 35 33
177 80 3 46 47 48
178 80 2 186 188 187
35 373 66 160 161 163
183 281 27 48 45 52
12 360 36 25 23 30
176 80 7 192 192 194
21 238 38 39 40 42
151 307 75 30 28 34
179 170 6 35 34 35
24 297 47 147 148 147
36 253 66 27 27 27
178 80 4 60 63 66
150 299 73 29 28 29
171 144 16 179 179 182
116 79 85 68 68 66
164 184 47 43 42 43
187 370 23 163 163 165
116 79 84 38 39 39
157 78 54 73 76 78
168 132 28 42 42 46
177 145 9 146 147 146
95 112 82 30 29 30
155 87 53 59 60 61
117 79 84 24 24 24
66 71 79 26 26 27
168 119 24 24 24 24
106 97 84 173 174 177
118 79 82 62 62 65
170 138 32 122 123 127
155 79 53 57 57 58
43 130 74 113 117 111
154 79 51 58 58 60
110 282 98 28 28 31
176 62 3 99 98 108
156 79 49 31 31 35
158 89 50 80 83 83
183 277 18 35 35 42
4 78 3 22 23 21
157 79 50 27 28 31
112 141 87 64 66 67
12 147 25 87 95 98
56 294 87 26 25 25
97 279 94 37 38 40
36 366 75 181 177 184
20 207 39 58 61 53
66 280 92 34 30 33
192 359 12 56 59 59
39 252 69 64 62 63
7 174 13 56 57 51
177 80 7 190 189 192
82 46 83 33 35 31
155 147 54 144 147 145
116 79 86 122 123 120
177 326 50 75 84 81
37 366 76 154 151 157
77 183 89 33 32 31
168 187 43 36 36 38
118 79 84 23 23 24
136 357 99 40 41 46
136 104 65 26 26 27
63 70 80 144 145 140
119 79 82 92 92 95
79 185 90 81 81 82
163 166 50 112 114 116
152 90 53 68 68 67
176 76 3 188 189 189
157 79 48 140 140 144
25 95 49 32 34 28
147 294 72 31 31 34
132 19 60 41 40 40
177 80 4 32 33 36
167 5 18 146 147 142
116 79 87 167 167 164
21 69 50 123 126 122
145 201 68 31 31 31
170 273 55 29 29 36
54 195 84 55 55 58
117 79 85 24 25 23
100 99 87 55 54 62
141 46 58 180 184 176
20 221 40 142 145 134
154 79 48 28 29 33
86 10 77 78 83 80
176 81 7 190 191 192
18 330 42 151 149 153
163 176 50 116 117 120
176 81 6 192 192 194
128 98 72 62 61 65
20 327 45 104 103 111
11 166 16 136 133 137
178 284 34 161 156 164
177 81 6 110 109 112
146 137 59 155 156 156
149 299 73 20 20 20
178 81 3 76 78 81
2 88 3 31 31 25
166 267 60 117 116 119
178 81 2 116 117 117
8 46 26 41 42 36
67 82 84 108 108 114
120 79 83 99 101 103
29 151 54 51 53 54
154 79 54 193 193 192
155 80 49 26 26 30
65 67 83 21 19 24
16 249 28 138 137 135
177 81 5 39 38 41
25 94 53 48 50 59
116 80 85 52 53 50
118 80 84 23 24 25
34 241 62 147 143 140
170 262 55 196 194 200
23 91 53 27 27 25
40 352 76 25 25 26
189 367 26 46 38 51
42 190 71 93 93 92
117 82 84 26 26 26
176 237 14 193 194 197
170 325 63 38 35 44
72 53 80 34 33 33
5 66 8 69 71 66
118 80 83 26 27 29
120 80 83 73 75 78
10 27 28 133 131 137
154 80 54 194 194 194
34 31 68 130 131 128
108 94 84 56 54 64
96 189 88 158 158 154
26 289 48 97 93 101
53 140 78 55 56 54
153 80 49 48 48 50
119 232 91 33 35 34
156 56 41 37 39 46
88 40 80 32 33 37
158 184 56 110 113 116
156 80 50 25 24 27
153 89 51 69 70 66
25 79 49 26 26 26
132 184 83 25 26 28
137 328 96 32 31 34
9 28 28 157 157 161
165 42 25 133 133 134
73 278 93 181 185 189
157 80 48 166 167 170
75 325 97 34 32 35
11 14 33 114 113 119
177 81 7 193 192 195
47 366 81 69 62 81
178 324 49 32 29 36
192 353 11 42 42 46
119 80 84 31 32 35
9 170 14 33 34 38
116 81 86 83 84 80
191 335 10 59 55 61
140 347 98 86 84 93
120 80 84 91 92 96
24 63 54 166 169 160
140 135 60 76 76 76
186 327 20 189 191 194
121 80 83 112 114 114
18 244 34 102 101 99
178 88 1 186 188 190
82 355 100 113 111 114
183 301 32 85 84 89
144 214 70 34 33 32
95 190 89 33 33 35
50 50 74 120 123 119
154 80 50 36 36 36
8 364 40 115 116 109
10 341 30 135 140 130
177 82 5 49 49 52
14 376 45 81 84 79
64 147 85 142 144 142
178 82 4 63 63 66
21 206 42 19 19 21
150 93 56 62 61 60
187 330 15 185 187 189
178 82 3 48 49 52
182 288 32 192 194 197
180 187 19 35 31 32
170 129 24 93 95 94
177 82 6 155 156 157
188 325 18 109 105 113
143 137 61 30 30 33
170 120 25 36 36 37
77 323 95 137 131 145
78 184 90 72 73 72
149 228 64 31 31 35
72 159 85 38 37 36
178 82 2 156 157 158
160 151 49 31 30 31
39 20 70 158 157 161
154 81 51 34 34 33
179 82 2 167 168 169
117 81 85 26 26 25
37 46 69 64 66 61
37 354 76 111 110 111
85 350 100 37 37 40
117 81 83 25 24 25
98 320 96 28 26 31
118 81 83 17 17 19
19 143 41 42 44 37
139 116 63 26 26 27
173 346 63 21 21 23
162 181 48 135 134 140
154 81 52 88 89 85
190 331 13 55 54 63
12 108 16 160 163 172
155 81 51 28 28 27
57 194 85 156 158 160
96 126 84 17 18 17
18 330 47 91 93 92
20 242 38 119 118 113
154 145 55 58 58 60
169 139 20 29 28 30
41 141 72 61 61 57
163 233 59 191 189 192
155 81 50 26 26 28
186 321 24 159 155 163
175 353 63 24 24 28
156 81 49 59 61 63
177 286 36 45 44 50
136 118 65 32 34 36
121 81 83 100 102 104
160 164 55 58 58 56
44 7 72 37 39 30
82 47 77 82 85 75
143 281 79 127 130 133
184 283 28 92 99 99
159 150 51 77 77 75
178 82 6 133 133 134
42 113 75 82 83 81
72 238 92 44 45 44
184 284 29 104 112 109
177 82 3 89 89 93
183 239 9 73 72 78
185 267 8 85 82 88
180 82 3 140 144 144
77 53 78 141 139 147
178 83 2 40 41 43
22 288 37 35 37 36
163 148 43 164 165 169
176 355 62 37 39 43
23 286 38 191 185 195
39 34 72 103 103 109
4 103 10 87 88 89
184 259 10 41 39 43
53 219 82 32 31 32
179 83 2 122 124 124
134 112 62 40 41 44
117 82 83 22 21 22
19 104 39 63 64 65
134 246 89 190 189 196
69 79 80 148 148 152
25 325 49 182 182 187
167 187 43 32 31 33
155 82 50 29 29 31
22 288 43 80 72 85
107 293 97 30 30 29
167 133 26 51 52 57
32 157 57 29 29 29
179 83 3 34 36 36
115 82 86 123 124 122
115 314 97 147 139 151
147 293 75 181 181 183
151 95 54 145 145 147
16 373 36 33 35 39
130 140 73 31 28 30
44 11 71 135 131 145
116 82 85 28 28 27
174 203 26 54 55 53
167 365 70 36 41 38
119 82 84 21 21 22
20 286 39 172 165 179
32 172 59 14 14 17
120 82 84 25 26 29
177 336 59 184 184 188
120 82 83 38 39 41
123 318 98 104 94 109
167 136 21 96 99 101
89 10 77 27 26 31
162 159 50 48 48 50
136 110 64 30 31 34
91 103 88 178 178 174
154 82 52 42 42 39
157 185 57 132 136 137
156 82 51 27 26 26
7 59 18 79 80 91
80 335 100 190 190 192
175 284 40 161 162 165
25 198 48 141 141 143
66 75 79 18 18 19
156 82 50 28 30 32
156 92 52 184 183 187
135 135 70 125 124 121
157 82 50 52 53 54
41 346 75 37 38 37
51 54 79 149 149 153
157 82 49 106 108 107
78 325 97 77 70 83
139 134 61 38 38 40
129 31 61 41 39 43
159 82 49 142 145 145
165 243 58 196 194 195
53 293 87 120 122 120
67 62 84 63 65 67
82 257 93 41 43 43
148 141 55 31 32 34
13 46 29 76 75 82
177 83 3 79 79 83
37 41 69 35 37 37
63 76 81 42 42 38
127 183 86 149 150 144
127 96 72 56 55 62
177 346 61 118 119 123
11 186 18 109 109 111
128 323 98 182 186 185
37 49 67 28 28 31
116 82 84 29 29 28
162 182 51 30 28 33
97 281 95 171 177 177
155 82 51 30 30 29
67 319 93 101 91 107
159 92 45 166 169 163
177 84 3 80 79 83
11 347 36 30 30 26
95 105 83 17 18 19
178 84 1 189 191 191
179 289 36 102 99 101
134 189 75 69 70 69
113 89 83 42 43 39
173 277 51 49 49 53
110 95 86 186 186 193
13 343 35 31 30 37
118 82 84 19 19 20
68 56 77 123 125 116
26 80 53 119 117 126
168 139 24 184 184 187
177 84 4 124 122 125
135 115 67 170 170 171
188 348 14 117 115 120
157 93 51 184 183 186
16 143 31 73 75 80
17 331 40 166 163 169
88 346 102 166 165 174
108 302 96 39 37 38
179 190 20 65 68 69
178 84 0 183 186 186
18 56 41 166 167 165
181 289 33 29 29 30
159 176 51 24 23 30
133 112 65 141 142 139
77 253 91 165 164 159
137 337 98 38 36 40
156 83 49 25 26 26
34 280 63 62 59 65
152 191 65 150 152 150
117 83 85 25 25 25
118 83 84 27 28 29
64 77 80 27 27 27
5 176 12 153 155 144
140 200 66 40 40 41
152 297 72 43 40 49
30 189 55 39 39 42
166 139 35 58 56 58
119 83 84 22 22 23
53 325 86 93 94 102
178 326 53 35 32 39
51 196 81 52 52 52
119 83 83 26 26 30
157 88 48 187 188 189
162 151 48 147 148 148
183 310 34 32 31 35
154 83 53 72 72 69
154 83 52 31 30 29
155 83 49 20 20 20
92 360 105 190 186 194
182 151 3 173 178 176
18 328 45 100 100 104
82 248 93 126 125 125
138 135 69 37 37 44
158 83 50 54 55 58
37 251 66 26 26 27
177 87 2 56 56 59
99 198 90 99 99 95
20 104 44 71 69 76
167 187 42 51 50 52
171 232 41 49 44 52
18 377 33 170 168 174
19 66 52 174 175 175
116 83 87 163 164 162
32 186 57 43 45 48
118 83 85 25 24 26
6 71 7 180 177 178
161 148 50 27 27 24
78 180 90 142 142 143
74 164 87 26 25 29
176 94 7 176 178 183
117 83 83 29 29 30
11 24 29 192 191 195
166 139 33 37 35 37
156 83 50 19 20 20
18 336 40 37 38 46
177 85 4 153 154 154
12 104 15 178 178 171
104 135 86 26 25 24
173 343 63 37 32 37
157 183 56 27 29 33
9 367 39 102 103 99
52 321 90 190 186 192
175 88 5 156 155 153
28 57 57 188 192 186
50 218 83 94 96 93
159 181 54 29 29 33
13 369 34 38 38 42
159 83 49 127 129 131
83 12 77 51 49 54
116 84 85 34 36 35
8 362 40 86 86 83
76 367 103 58 65 64
13 148 25 89 96 99
138 118 64 20 20 22
107 305 99 64 63 65
117 84 84 16 17 17
16 110 23 34 33 34
168 191 32 150 150 151
139 107 61 73 73 72
132 14 60 113 114 117
155 145 57 77 75 77
154 84 54 152 152 151
37 280 66 168 168 175
172 203 31 56 54 55
154 84 53 38 37 37
161 232 60 181 179 183
39 277 69 80 79 84
138 104 63 75 76 77
178 85 0 189 189 190
87 20 77 60 62 67
178 145 7 185 185 186
155 84 53 32 31 32
139 337 96 39 41 46
193 355 12 36 37 37
32 58 59 68 65 75
67 145 84 95 97 99
159 84 49 144 146 146
169 143 14 115 115 120
36 146 67 119 124 125
117 319 95 172 178 177
158 88 49 101 103 102
64 77 84 27 29 26
97 320 98 85 76 85
10 163 16 163 160 151
135 138 72 33 32 36
158 184 57 74 78 81
174 330 55 164 171 172
176 86 4 152 151 153
21 96 49 177 182 174
33 331 63 189 194 194
141 204 67 30 30 31
128 360 102 161 155 167
175 86 2 64 64 66
175 146 12 84 83 86
177 86 1 57 58 61
9 272 22 42 44 35
184 251 6 28 28 33
11 256 22 33 32 32
99 104 81 105 107 106
39 277 71 29 29 34
9 179 14 32 32 35
154 84 55 189 189 188
77 177 89 166 166 167
30 181 57 55 60 58
55 290 87 28 29 29
74 172 86 27 25 25
156 85 49 52 54 62
37 27 69 24 24 22
173 232 44 58 51 57
52 98 77 186 188 180
94 364 107 34 28 40
94 118 84 30 31 32
185 275 15 41 38 44
174 350 65 133 132 132
178 86 2 41 42 46
161 177 56 62 63 62
167 265 59 30 29 31
60 93 80 30 30 24
10 339 29 95 96 91
155 93 56 173 172 178
116 85 85 56 57 56
17 129 33 24 26 26
117 85 84 24 26 26
23 312 53 63 65 62
154 85 52 29 29 31
56 52 76 167 172 168
157 85 49 36 37 42
11 158 18 39 39 45
177 87 1 37 39 42
8 362 37 49 49 44
178 87 1 164 165 167
28 179 59 143 148 142
160 177 52 19 18 25
161 93 43 189 190 185
25 305 55 34 35 37
153 85 54 184 184 185
114 317 97 43 47 44
144 233 82 187 190 194
155 86 49 62 62 70
156 86 49 40 40 47
182 301 34 32 33 35
14 127 31 109 111 107
154 86 54 149 151 151
42 345 78 30 29 37
149 142 59 145 145 147
156 316 73 31 30 34
155 86 50 39 38 43
157 86 49 23 24 28
23 231 47 75 74 74
162 149 50 27 27 30
6 173 12 100 101 95
177 87 3 27 27 31
14 341 33 22 19 24
143 214 71 74 73 73
129 184 85 114 116 113
1 81 4 107 108 104
177 88 2 50 52 54
26 75 53 49 47 52
177 88 1 80 83 85
167 238 51 48 43 47
155 86 52 19 19 23
181 287 35 27 25 32
74 151 87 81 81 84
18 377 32 170 169 175
175 88 4 71 70 69
7 191 14 133 136 131
185 273 13 42 36 45
155 87 51 26 26 31
18 332 39 88 86 94
139 135 62 32 31 35
13 53 33 32 32 32
155 87 49 43 43 49
34 261 65 179 177 170
172 199 31 54 54 52
139 235 85 29 31 38
127 177 87 92 93 93
177 88 4 26 27 30
67 93 86 48 48 54
43 365 80 44 37 54
154 87 52 37 38 39
121 79 84 117 119 117
151 56 55 179 177 182
11 194 17 79 80 76
155 87 52 24 24 29
23 81 51 29 31 25
157 87 49 64 64 69
90 25 80 177 178 180
81 339 100 185 185 185
158 95 44 36 34 41
132 103 66 171 173 173
182 368 55 172 177 179
177 89 2 148 150 153
59 188 84 151 150 146
167 367 66 166 164 171
176 89 4 32 33 34
12 360 34 27 26 32
178 89 3 118 120 124
154 88 52 106 108 106
119 180 87 24 23 23
72 167 86 25 25 25
154 88 51 63 64 64
182 297 32 196 197 201
179 365 55 47 48 50
102 191 91 104 103 100
153 88 49 91 93 94
47 137 75 63 63 64
139 331 95 38 36 43
154 88 49 57 57 59
83 145 85 151 151 154
173 224 29 65 65 70
166 363 72 125 116 128
96 191 87 36 37 36
169 264 60 32 31 32
156 88 50 23 23 25
11 281 24 41 44 37
190 344 11 155 157 160
190 360 15 41 36 47
5 68 9 73 72 81
180 182 10 46 42 43
157 88 49 134 135 139
57 293 89 20 20 21
105 96 86 74 73 79
175 89 7 145 144 142
144 231 83 34 31 35
24 319 51 36 36 37
177 89 4 32 33 36
40 265 69 119 117 119
154 312 76 77 80 83
127 362 102 85 79 91
153 88 53 186 188 185
148 297 71 29 28 31
127 95 73 60 59 67
14 265 25 178 176 178
32 159 58 31 31 32
127 166 87 28 28 27
153 88 51 113 114 111
28 290 54 79 79 87
176 90 3 41 42 47
181 308 34 28 28 31
112 313 101 174 177 182
153 89 54 192 195 192
153 89 52 77 78 74
29 317 51 27 25 29
37 22 69 24 23 28
131 184 76 115 114 113
154 89 50 34 34 34
22 231 45 22 23 25
79 328 98 51 55 53
137 105 63 55 56 57
135 39 62 182 183 185
9 33 25 20 20 21
156 89 51 29 29 30
60 312 91 62 60 68
155 89 50 27 28 31
187 272 10 37 39 41
26 313 54 29 29 28
104 99 87 186 186 191
152 89 53 166 166 163
160 168 55 76 78 75
154 89 51 35 35 35
12 156 21 78 79 81
157 89 50 56 58 60
11 153 21 59 63 60
86 25 78 30 30 29
159 89 50 121 125 123
177 90 5 29 30 35
188 329 14 37 39 45
141 321 89 186 179 188
33 165 58 36 36 38
160 93 44 164 167 161
182 256 9 43 39 45
126 321 98 31 36 39
154 281 70 31 34 39
26 315 53 21 21 22
16 371 34 52 49 62
176 91 4 63 64 71
15 106 23 127 127 121
18 63 48 165 165 164
177 91 3 183 184 187
158 89 49 122 126 125
161 177 54 25 26 31
125 321 97 66 71 72
180 312 34 25 25 28
136 338 98 50 43 52
155 93 54 187 189 194
135 347 99 155 155 157
155 90 52 36 34 38
121 78 82 124 127 125
156 90 51 42 41 46
37 347 75 177 178 174
146 281 76 49 46 54
164 146 44 32 33 37
155 90 50 46 46 51
157 61 49 26 28 29
121 91 82 34 33 37
132 258 97 40 40 42
16 334 34 129 124 133
78 98 84 178 178 181
21 286 35 101 92 106
25 316 52 25 25 24
172 342 63 101 96 102
102 98 87 42 41 48
132 99 66 66 67 67
104 199 90 27 28 30
68 232 87 69 67 70
176 91 3 182 184 187
74 92 88 114 115 114
175 337 57 154 157 161
158 91 49 55 56 59
62 85 81 124 124 121
173 361 67 36 36 44
49 214 82 146 145 138
154 90 52 32 31 35
10 179 14 39 37 41
155 90 51 49 49 53
126 362 101 123 120 127
174 91 9 143 143 139
49 131 79 159 158 156
173 203 28 24 24 26
150 91 55 161 161 158
91 29 82 138 138 142
17 108 33 183 183 170
121 90 83 42 39 41
24 70 54 18 17 23
19 128 30 65 65 67
153 90 52 44 43 45
173 347 65 158 157 161
23 328 48 89 89 99
135 112 65 30 30 33
39 278 72 27 31 34
132 359 101 80 73 86
176 92 5 94 97 103
170 205 29 28 28 28
36 277 68 45 44 51
174 92 10 103 100 96
103 200 89 19 20 22
121 90 82 29 26 30
73 179 85 41 43 46
152 91 54 47 47 46
151 91 53 67 68 65
178 366 58 174 176 176
17 136 30 38 44 45
159 180 55 58 57 56
152 91 52 38 38 37
139 277 85 62 66 69
138 333 95 45 44 49
171 143 17 167 167 170
99 122 86 166 167 169
153 91 53 37 36 42
183 283 32 49 42 49
89 20 80 139 139 141
158 183 57 29 29 33
123 155 84 61 64 69
154 91 52 39 38 45
151 296 72 39 37 44
140 361 98 186 188 187
54 137 81 170 173 171
155 91 52 78 77 86
11 274 23 26 28 25
160 90 48 177 179 175
142 136 60 34 35 36
107 314 99 58 58 66
174 92 11 192 193 187
173 92 10 159 159 154
28 321 55 44 40 51
96 188 88 169 169 165
151 91 56 193 194 191
74 323 96 58 50 64
159 91 48 127 130 128
151 91 54 65 63 62
173 217 30 24 24 24
68 93 86 38 38 46
44 106 74 42 43 44
112 302 98 190 191 197
159 91 49 44 44 47
173 93 10 107 107 101
169 133 25 50 50 53
39 193 69 157 160 155
176 93 6 134 136 141
149 320 84 74 78 82
23 70 52 25 26 25
150 92 56 103 103 100
68 318 92 188 183 194
150 92 55 95 94 92
161 47 23 137 135 142
166 255 59 153 149 152
110 93 81 32 29 34
17 339 37 98 99 108
151 92 53 32 31 29
154 92 54 35 33 43
87 100 81 33 31 36
26 78 55 179 178 183
16 61 41 131 132 131
155 92 52 188 188 194
8 59 22 159 154 155
81 351 102 194 193 193
158 92 51 105 104 108
14 360 34 174 170 186
175 344 61 28 28 31
54 210 83 27 27 28
97 102 85 79 77 82
161 176 54 16 16 16
159 92 46 149 153 148
173 93 11 123 123 116
179 149 8 27 27 30
36 246 68 44 43 48
174 93 11 52 51 45
141 98 62 121 120 117
6 79 7 69 67 77
169 140 22 188 187 190
68 94 86 111 113 118
182 239 10 35 34 39
149 92 56 171 172 168
101 99 85 51 50 56
27 72 55 181 181 183
33 163 59 38 38 42
135 134 69 101 100 100
152 92 54 30 29 35
24 293 47 63 65 65
154 92 53 97 96 104
111 94 84 181 182 184
165 134 27 72 72 72
158 92 50 49 47 52
10 21 28 188 189 190
157 92 49 43 42 47
175 93 11 39 38 34
69 94 86 91 92 97
191 353 11 39 40 44
77 93 90 89 89 92
27 302 49 29 29 32
45 131 75 41 42 44
45 114 77 31 30 30
161 160 50 58 59 61
10 361 31 46 49 43
154 92 55 36 34 40
24 148 43 36 38 39
175 93 7 37 39 45
45 191 70 105 103 103
97 112 84 104 104 106
25 60 56 184 189 181
109 93 84 42 40 47
121 92 81 32 29 36
145 215 72 44 44 45
155 186 60 29 31 35
130 13 60 31 31 31
148 92 56 182 183 178
47 281 79 73 65 76
136 103 65 38 39 41
162 155 49 53 54 59
50 101 77 29 28 29
158 92 52 192 192 194
158 92 47 45 44 50
90 29 80 96 96 98
13 367 33 12 12 15
37 254 66 8 9 11
165 187 46 84 85 86
160 92 44 189 191 185
33 170 63 149 150 149
148 189 67 56 53 51
175 349 61 29 29 34
100 213 90 143 143 139
165 139 36 172 169 168
173 93 13 167 165 161
177 285 35 51 50 58
46 332 81 33 33 40
27 155 55 97 104 100
25 305 56 50 50 51
38 276 71 53 53 60
175 94 8 98 99 104
52 229 84 24 25 22
28 322 53 43 42 48
174 221 29 22 23 25
175 94 7 81 83 89
111 298 96 55 54 60
136 334 97 18 18 20
72 175 87 28 28 26
43 141 74 43 43 47
136 136 72 40 39 38
19 206 38 89 88 84
165 244 55 29 27 29
43 124 75 144 145 143
58 144 82 164 166 164
181 322 45 91 100 99
66 70 80 28 28 28
148 93 56 113 115 108
149 93 55 50 51 50
21 331 47 91 94 102
147 317 85 194 188 194
88 346 103 176 176 183
148 192 68 31 31 34
12 345 38 26 26 25
169 191 38 31 30 32
157 93 48 29 27 32
13 55 31 169 169 170
70 166 86 138 138 134
173 94 13 109 108 102
15 336 36 115 113 119
157 93 47 32 31 37
174 145 12 43 43 47
175 94 13 31 29 27
141 321 88 161 153 163
147 93 58 182 184 179
81 345 100 161 159 162
186 263 9 36 34 38
15 56 35 36 35 35
174 231 24 167 167 171
148 93 55 103 105 99
149 96 58 65 65 75
25 232 44 28 28 29
144 229 76 176 179 183
151 93 55 32 31 35
70 238 90 157 158 153
138 332 95 36 36 41
159 161 52 63 64 60
104 314 99 155 149 158
124 275 94 134 137 144
75 166 86 43 44 47
26 230 43 50 49 46
159 93 45 43 43 48
15 141 32 116 120 117
167 184 44 167 168 165
173 94 14 172 172 166
150 304 77 76 74 76
12 44 29 33 32 37
45 237 74 79 78 83
167 134 27 42 40 34
148 93 58 107 109 103
10 106 21 36 36 33
88 345 103 172 171 180
34 15 65 28 28 31
159 94 44 45 44 50
177 283 36 101 99 106
12 255 20 25 26 26
181 310 38 84 81 89
73 95 87 70 70 76
105 94 84 45 44 46
26 315 50 27 28 27
124 93 78 46 45 52
10 162 14 64 61 63
147 94 59 157 158 154
84 186 88 33 34 32
151 297 72 31 29 35
87 11 79 27 26 35
165 119 24 23 24 24
142 350 100 142 141 151
148 94 58 69 68 67
143 360 94 86 85 97
147 94 56 105 106 101
165 185 42 157 158 154
164 143 38 31 30 34
93 116 88 90 91 90
148 94 56 44 44 42
175 336 60 31 33 34
158 94 48 82 81 85
39 362 79 14 15 16
18 141 36 26 26 28
185 249 7 39 37 41
158 94 46 33 32 39
17 134 34 17 17 19
159 94 45 49 48 51
141 200 67 32 33 34
145 361 96 49 45 56
108 94 85 65 63 73
43 240 73 34 34 40
158 186 59 123 125 126
124 94 78 51 49 55
84 37 81 39 41 43
87 352 102 92 91 97
154 143 55 33 34 34
60 301 92 78 76 84
148 94 59 74 73 72
14 366 37 87 82 103
25 95 51 62 64 70
114 88 80 63 64 64
148 94 55 38 38 36
183 294 33 88 88 92
159 94 48 71 69 75
150 319 82 147 152 156
31 184 61 32 33 36
70 95 92 133 131 135
186 324 21 58 56 64
109 94 85 116 114 123
131 362 102 37 33 39
110 94 85 155 154 162
71 53 78 72 74 67
148 92 55 171 172 165
171 196 28 33 34 33
147 94 57 71 70 69
69 324 94 185 188 189
149 94 55 31 30 30
160 179 54 63 64 63
17 374 36 63 70 61
170 264 56 40 39 46
137 130 64 36 36 39
174 95 14 27 26 24
26 64 53 31 30 34
175 95 13 30 30 34
150 300 73 20 21 22
20 210 40 118 120 113
6 103 9 33 33 40
16 134 32 51 54 52
179 366 55 89 91 93
170 141 18 40 41 44
137 127 65 16 17 18
175 95 10 77 78 83
176 335 59 58 57 62
25 309 53 32 32 31
88 185 89 147 147 143
133 186 73 130 129 128
22 331 47 122 121 132
82 96 84 60 61 62
14 373 29 125 124 127
146 99 61 144 142 150
110 95 85 185 186 192
80 355 102 188 187 190
148 95 55 36 34 38
150 94 55 34 33 39
150 296 72 32 31 35
17 376 36 162 162 166
105 280 94 184 179 187
33 29 67 186 189 184
173 96 13 27 26 23
181 235 15 45 43 48
15 58 39 141 142 142
172 346 65 168 167 170
108 95 84 164 164 169
63 57 86 60 63 58
164 186 47 53 53 56
79 95 83 37 38 40
146 95 60 136 138 133
17 283 27 38 34 43
157 88 50 18 20 20
147 95 60 121 123 117
165 368 75 128 127 129
148 95 58 38 36 37
127 20 59 80 79 85
94 104 82 26 25 26
5 85 5 43 41 46
158 95 48 170 169 173
159 95 48 160 159 163
140 323 92 193 185 194
141 360 97 64 69 66
162 95 41 163 165 164
79 96 89 65 64 70
153 307 75 32 31 37
36 273 68 16 16 14
35 149 60 116 115 110
64 79 80 49 50 51
133 185 78 44 43 45
80 96 89 46 46 52
37 353 76 138 138 139
137 116 63 34 35 36
14 337 37 54 51 55
157 182 53 36 37 41
13 345 41 54 55 55
175 341 60 47 47 50
83 21 77 187 188 186
81 96 89 40 39 44
128 96 74 52 50 58
8 359 32 121 121 119
150 190 67 29 29 30
147 95 58 42 41 42
124 318 98 131 121 135
147 95 57 32 31 33
10 167 17 164 162 164
148 95 56 35 34 40
184 326 22 187 188 189
168 263 59 31 27 29
149 95 56 40 40 47
109 290 96 79 80 86
21 288 39 40 38 42
157 95 47 187 187 189
139 99 64 160 162 156
179 296 36 56 54 59
172 225 28 48 48 53
76 97 86 122 122 126
176 348 61 48 48 52
165 118 28 86 85 85
7 357 32 193 192 196
53 206 83 23 24 23
141 103 63 135 135 138
146 95 62 168 170 165
148 294 75 125 125 127
135 133 68 98 99 97
101 204 88 96 96 93
147 95 56 35 33 32
159 95 46 102 100 106
176 277 47 188 188 195
158 95 45 40 38 46
145 95 62 183 185 181
145 95 60 119 120 118
131 238 92 12 13 14
105 134 83 119 121 120
147 95 61 79 80 78
178 290 36 102 99 102
178 225 30 45 47 44
150 95 57 105 105 113
132 140 73 34 31 34
13 108 18 57 58 62
139 333 97 43 44 48
159 96 42 38 37 41
39 333 75 170 164 178
167 128 30 163 162 161
29 238 49 35 37 35
186 313 34 179 182 186
186 261 7 193 192 197
192 357 13 40 35 43
138 126 64 26 26 28
159 96 41 75 73 76
174 96 13 34 33 36
91 104 87 131 133 130
9 366 34 46 45 40
109 136 82 31 31 30
141 103 62 163 163 166
145 96 61 133 134 131
146 96 61 69 69 67
75 327 98 128 134 130
145 96 59 50 48 48
96 7 82 171 168 182
21 87 52 178 179 175
145 96 58 71 71 67
141 129 65 80 80 83
146 96 59 37 35 36
22 199 29 36 37 38
62 63 79 51 52 46
55 294 87 138 138 139
146 96 58 41 40 40
167 129 31 162 161 160
147 96 58 33 32 35
123 162 85 24 22 21
148 96 58 32 32 39
183 257 10 108 105 110
15 337 36 60 58 62
141 334 95 187 187 194
150 96 58 53 52 61
150 96 57 89 89 99
60 318 90 91 96 97
174 283 44 168 167 176
111 138 86 29 28 26
149 96 56 135 135 141
150 96 56 172 172 178
162 187 40 30 31 33
159 96 47 183 183 185
33 328 58 78 84 79
158 183 56 35 38 43
142 227 80 158 158 153
165 10 24 51 52 48
44 115 74 32 33 31
159 96 46 150 149 153
143 203 66 75 75 74
148 288 74 70 69 76
12 363 36 36 35 41
127 181 89 150 151 146
158 157 51 23 24 24
64 90 84 127 126 130
159 96 45 104 103 107
161 159 54 113 115 114
168 130 23 172 174 172
175 97 12 161 163 168
140 133 62 117 118 120
89 97 84 158 160 155
28 296 52 36 34 42
105 96 85 68 66 72
27 321 49 40 40 40
112 229 90 30 31 30
62 58 81 61 63 61
16 196 29 49 47 47
137 123 65 25 25 25
145 96 60 58 56 57
31 12 57 134 137 134
165 321 67 79 72 84
146 96 60 51 50 49
40 31 71 133 132 135
81 334 99 132 131 134
165 124 27 65 65 65
29 240 53 87 89 87
127 96 75 38 37 43
138 132 65 29 31 33
165 183 47 149 149 147
159 96 44 95 94 99
136 123 65 55 55 53
160 96 45 95 94 99
60 298 91 186 183 194
111 89 84 139 141 134
175 97 13 165 167 171
91 45 81 160 160 165
103 97 86 34 32 40
105 97 86 124 123 129
26 83 54 32 31 36
25 98 55 167 169 169
25 147 47 78 81 82
125 96 75 123 123 125
133 137 72 129 133 129
68 55 78 74 76 69
175 228 25 58 59 62
135 117 67 113 114 114
8 24 24 78 77 83
25 221 43 123 122 120
144 96 61 73 72 73
74 51 78 80 82 74
70 325 94 189 195 189
171 132 26 44 43 44
144 96 60 77 75 75
180 152 5 36 33 40
25 221 41 43 43 43
25 327 53 194 197 205
147 96 59 34 33 37
163 31 26 14 13 17
36 22 69 33 33 38
28 63 55 118 114 124
167 134 29 167 167 163
149 96 59 48 48 58
151 288 73 28 27 30
82 355 101 45 43 46
181 175 6 129 128 132
15 134 33 51 56 52
159 97 45 194 194 196
186 273 9 118 122 123
71 320 95 190 184 197
167 134 25 57 57 61
160 97 45 181 181 185
175 194 27 28 28 29
160 97 44 122 121 126
180 309 35 48 46 54
175 146 13 124 124 126
47 367 82 39 31 51
160 97 43 86 84 89
22 196 42 88 89 89
25 152 51 96 98 96
160 97 41 46 44 50
53 283 83 156 151 160
170 231 40 66 61 67
34 243 64 30 29 32
173 97 14 32 33 37
138 136 68 87 86 90
74 170 88 26 26 29
174 97 14 89 91 96
17 243 29 53 51 56
104 97 86 121 120 127
41 109 75 133 135 130
106 97 86 184 184 190
137 128 65 44 44 45
125 97 75 124 125 129
89 190 88 159 162 160
128 97 74 28 27 32
38 258 66 29 29 30
161 175 58 159 159 157
128 97 73 37 35 40
47 121 79 41 39 40
158 278 66 33 37 39
135 110 64 56 55 60
126 319 98 105 97 109
127 97 73 74 73 78
173 362 64 176 182 180
178 64 2 45 45 50
128 97 70 63 63 69
50 52 75 33 30 33
179 320 44 69 60 71
27 98 57 28 28 31
143 97 60 72 71 71
56 221 85 110 109 109
46 130 75 30 31 35
102 191 92 75 73 71
182 298 34 33 33 35
166 122 26 51 51 52
48 122 77 34 35 37
144 97 60 47 46 47
152 186 62 44 41 39
184 240 9 70 70 77
152 318 81 186 193 196
156 282 71 134 139 139
9 167 14 19 18 23
134 108 64 38 38 39
166 242 57 162 159 161
20 236 41 48 47 50
145 97 59 34 32 34
146 97 59 35 33 37
12 266 23 32 30 32
160 148 49 48 48 45
85 11 78 45 47 50
146 97 60 35 32 37
82 333 99 68 65 69
149 97 59 93 95 105
84 15 77 65 66 64
23 291 48 37 40 40
95 322 98 38 32 37
62 189 85 33 33 34
106 285 100 180 180 182
179 290 34 36 35 38
7 160 12 16 15 14
149 97 58 162 164 172
79 11 79 186 184 193
146 140 62 148 149 150
172 208 30 68 67 64
174 326 54 95 86 98
148 97 57 155 156 162
134 11 61 117 114 132
149 97 57 175 176 181
107 284 98 23 23 26
116 88 83 40 39 42
13 115 31 182 180 166
186 260 9 42 41 43
160 97 42 83 82 86
12 45 27 25 25 31
181 172 4 42 43 43
104 97 87 83 82 90
126 97 75 166 167 168
187 328 13 37 35 42
72 174 86 28 28 27
135 134 67 91 91 89
128 97 71 58 57 64
26 148 51 113 116 116
26 294 52 26 25 28
127 97 69 70 69 73
188 344 15 188 184 194
145 97 60 32 29 33
174 228 29 186 189 194
147 97 60 36 33 41
148 97 58 163 163 171
162 36 24 28 31 31
76 177 88 97 97 99
21 325 43 73 70 82
146 226 69 71 74 75
159 97 41 31 29 33
190 333 10 43 41 46
58 298 91 30 28 36
88 98 83 61 63 59
102 98 86 55 54 60
145 203 67 108 109 108
103 97 87 45 43 52
159 50 37 103 105 102
24 220 43 53 54 55
180 177 4 54 53 57
27 297 50 22 21 24
153 232 63 149 151 155
159 317 69 166 161 172
20 334 46 193 195 203
130 181 82 141 141 139
26 300 49 26 26 27
126 97 76 182 185 186
74 161 87 32 32 33
38 34 70 40 39 43
126 97 72 32 31 36
167 193 30 69 69 72
159 158 51 23 24 25
127 97 72 75 75 79
90 98 85 68 67 66
111 303 97 65 66 69
14 368 34 40 38 49
103 98 87 81 80 88
76 182 90 31 31 30
48 234 81 52 54 51
160 99 41 186 185 189
104 98 87 158 157 164
91 107 87 136 139 137
47 136 78 36 37 38
126 98 72 43 42 48
12 195 21 32 33 30
36 38 69 37 39 33
179 289 35 50 47 49
166 363 71 125 114 128
135 188 75 32 32 35
20 106 43 171 171 175
31 237 55 100 97 98
127 98 72 102 102 104
37 153 64 171 173 173
73 168 87 21 22 26
166 193 32 38 38 39
162 154 52 15 16 16
36 244 66 58 55 55
94 322 99 183 177 183
131 103 65 150 152 153
147 97 61 35 33 39
182 298 31 191 190 196
12 364 36 32 29 36
37 349 75 190 190 190
148 97 61 42 41 47
47 115 78 174 174 178
160 98 41 111 110 115
139 105 62 103 107 105
36 15 67 37 38 37
173 224 27 49 49 56
99 98 85 29 28 29
164 121 27 41 40 40
85 46 79 48 46 52
127 98 73 120 121 122
54 218 84 34 32 33
156 185 59 34 37 39
89 101 82 45 45 48
160 158 50 28 29 32
18 117 36 137 136 139
144 98 60 34 32 35
183 242 8 40 39 41
138 358 98 144 153 147
56 304 90 30 29 31
146 98 60 71 70 77
147 98 61 67 66 72
175 202 27 77 77 76
149 302 74 29 29 30
191 352 13 55 55 57
187 275 14 77 82 86
166 320 67 185 179 191
144 193 67 72 74 74
147 98 60 131 130 137
148 98 60 162 161 167
18 65 50 183 184 183
8 45 28 45 46 48
148 189 66 31 29 30
6 73 7 185 184 189
148 98 59 184 185 191
17 331 46 133 133 133
36 23 68 58 58 60
179 168 6 35 33 34
160 160 51 30 29 29
182 305 34 14 16 17
148 98 58 181 181 188
162 179 51 75 76 78
17 244 34 64 63 64
160 98 42 166 166 169
16 139 34 54 56 50
18 138 32 25 27 23
93 43 82 43 45 44
81 255 93 16 16 19
91 108 84 56 58 55
27 91 55 129 129 134
27 306 52 33 33 38
60 92 80 68 70 61
98 98 85 28 26 27
106 280 95 167 162 172
165 363 73 176 169 179
129 98 72 42 40 45
12 170 15 150 149 153
16 132 30 38 47 44
130 98 69 50 52 52
22 287 38 57 50 60
91 323 97 154 146 156
146 98 61 48 46 54
21 101 47 34 32 36
42 122 76 97 99 97
174 358 67 187 187 187
37 259 68 26 26 27
160 98 40 51 50 56
15 371 31 30 33 30
161 98 39 30 28 34
84 26 80 115 115 115
14 249 26 43 42 41
142 135 60 125 125 125
152 298 73 41 37 44
92 99 87 34 33 34
97 99 85 31 31 28
38 150 67 153 154 156
101 99 87 75 73 81
163 165 50 103 104 107
62 228 86 119 115 112
170 137 29 143 145 151
144 98 61 33 31 39
102 318 96 32 35 38
173 231 42 148 143 148
95 277 97 41 34 44
145 98 61 36 34 42
95 278 96 41 39 45
160 99 40 153 152 157
95 99 87 88 89 85
135 29 60 91 92 91
96 99 85 51 51 49
30 159 56 82 86 83
141 279 82 124 129 132
9 339 29 157 159 153
172 277 50 49 50 53
166 188 37 148 146 146
10 370 39 55 54 55
103 99 87 181 181 187
130 98 70 51 50 55
129 99 68 89 89 92
145 98 60 65 64 71
52 139 78 41 41 41
155 184 63 147 147 143
90 135 86 147 148 144
161 276 65 35 38 39
22 92 52 48 48 44
102 99 87 153 152 159
128 99 69 37 36 42
162 274 63 53 46 54
165 146 41 179 180 184
145 99 61 106 104 113
182 155 1 185 187 187
37 257 66 39 39 38
142 101 62 79 79 84
145 99 60 126 125 131
174 228 23 122 121 125
182 300 34 34 34 37
127 99 72 184 185 188
11 192 16 56 56 65
139 233 85 38 35 37
128 99 71 155 155 158
164 186 42 33 33 33
174 222 30 18 18 23
161 158 55 160 162 159
14 194 25 83 83 82
129 99 69 74 73 76
79 249 92 27 27 26
151 142 53 116 117 116
144 99 61 52 50 57
100 100 87 104 103 110
81 97 84 102 101 108
156 145 53 32 32 34
128 99 72 163 164 164
77 328 97 179 184 185
22 326 44 116 115 127
11 186 16 55 54 59
143 138 60 30 29 34
77 49 76 159 161 152
146 283 71 31 31 34
158 21 26 120 118 125
97 363 106 175 172 181
84 47 80 95 94 99
40 43 72 78 79 84
144 137 60 28 28 32
129 99 67 102 102 105
20 203 36 153 153 131
193 350 13 171 170 175
130 99 68 65 64 67
171 255 55 160 160 166
151 186 63 71 69 67
131 99 67 50 49 50
137 333 96 14 14 16
138 192 69 21 20 23
143 99 61 35 34 38
120 277 97 52 58 65
171 131 25 125 126 126
161 100 40 191 190 194
128 100 70 173 174 176
49 368 86 186 183 193
101 282 96 40 40 43
