ply
format ascii 1.0
comment Created by Open3D
element vertex 337
property double x
property double y
property double z
end_header
95 4 81
118 3 73
136 7 57
155 5 38
166 8 18
73 6 78
42 10 70
86 12 77
158 11 28
127 12 62
31 12 62
161 16 24
130 17 60
35 18 67
85 18 78
9 17 27
5 17 18
128 24 61
160 24 25
86 27 79
37 27 69
8 27 25
131 32 61
161 32 24
87 35 80
8 37 26
37 37 69
130 40 62
161 41 24
90 43 80
40 45 71
135 45 59
10 47 28
161 48 29
79 48 79
126 48 69
102 48 83
166 49 16
34 51 65
145 51 54
50 51 76
157 53 40
71 53 79
9 54 24
114 55 83
172 54 10
15 56 37
59 56 80
153 57 49
29 58 58
65 60 79
118 61 81
176 61 3
18 61 46
155 64 48
6 62 14
64 66 81
24 66 52
116 68 82
154 70 50
4 70 5
175 70 3
65 73 80
23 76 52
117 77 83
155 78 50
65 80 81
3 80 4
177 80 4
24 85 52
116 87 82
154 88 51
64 89 81
176 88 4
4 89 5
120 92 79
70 92 85
23 94 51
158 93 47
107 94 82
174 93 10
146 96 57
79 96 84
129 97 70
55 96 79
6 100 8
28 99 59
161 98 40
92 101 83
98 102 84
137 102 63
45 104 76
19 103 42
38 103 68
133 107 65
11 105 18
16 110 32
15 108 24
94 111 83
44 113 75
136 114 63
16 120 32
95 120 84
166 121 26
45 122 76
137 124 65
16 129 32
97 130 84
167 131 26
139 133 64
45 132 76
166 136 23
18 138 34
90 137 86
135 137 70
107 137 84
51 138 78
166 139 35
148 140 58
172 142 15
40 143 70
117 142 85
15 145 30
63 143 83
79 144 84
162 145 43
157 146 52
22 145 42
127 146 80
177 147 7
122 150 86
71 150 85
36 149 63
26 150 50
160 155 50
11 152 22
123 157 85
180 156 2
30 157 57
72 159 86
8 160 15
160 163 52
31 166 58
124 164 85
179 167 5
73 168 86
8 170 13
160 174 52
31 175 59
181 176 4
74 178 87
127 179 85
8 179 13
158 182 54
33 185 60
117 183 87
180 184 11
68 184 86
164 186 44
132 185 78
84 185 89
9 188 14
150 189 65
103 191 90
94 189 88
28 191 53
139 191 70
166 191 34
56 191 84
41 191 69
176 191 23
48 195 77
101 197 89
14 195 23
142 198 68
23 197 44
172 198 28
52 202 81
20 199 33
141 203 67
172 206 29
21 207 40
103 207 89
52 212 82
145 213 70
174 214 28
21 217 42
103 216 90
145 222 67
53 222 83
174 224 28
21 225 42
109 227 90
24 231 46
145 228 74
153 230 62
173 230 38
52 230 81
176 231 20
65 231 87
138 233 84
121 232 91
162 235 59
21 236 41
169 236 47
74 237 91
180 237 12
131 237 91
44 238 73
29 237 52
167 243 55
79 243 91
183 242 7
32 242 61
16 243 32
38 246 68
184 249 6
133 248 90
11 251 23
79 252 92
167 252 55
36 255 66
184 258 9
130 259 95
11 260 22
80 260 93
167 263 57
37 264 68
11 268 23
186 267 8
79 269 94
169 271 56
132 271 92
36 274 67
10 275 23
87 275 95
184 276 16
160 276 65
139 276 85
122 275 94
69 277 92
173 278 45
99 280 94
42 279 73
16 282 26
183 281 27
148 282 75
151 284 72
30 283 58
177 284 35
58 285 90
107 285 96
50 283 81
146 288 74
20 286 37
181 289 33
25 290 50
24 289 38
55 291 87
149 294 73
108 295 96
180 296 34
58 299 90
26 299 49
109 303 97
151 304 75
181 305 34
25 306 51
58 308 90
25 311 49
108 312 98
152 313 74
181 314 35
60 317 91
25 317 51
147 318 82
119 317 97
182 319 29
98 320 97
162 320 67
70 321 93
178 321 45
131 322 97
52 323 88
141 323 89
186 324 20
22 325 48
32 326 57
78 326 97
171 327 61
174 327 53
88 328 98
137 330 96
189 330 12
46 330 81
35 330 66
17 333 40
83 335 99
173 336 60
40 337 75
13 338 33
137 339 97
189 340 11
13 343 40
84 345 100
174 346 62
40 347 76
11 349 33
138 349 99
190 349 13
11 352 40
84 355 101
175 356 63
39 356 77
11 356 33
191 357 13
137 358 99
10 363 34
90 362 103
169 363 68
127 363 101
41 365 79
145 363 94
189 365 21
179 365 55
75 365 101
164 367 72
11 368 36
187 370 25
96 366 108
35 371 71
47 370 85
16 373 32
35 372 64
16 376 40
19 376 26
24 376 32
