ply
format ascii 1.0
comment Created by Open3D
element origin 1
property double x
property double y
property double z
element voxel_size 1
property double val
element vertex 2307
property double x
property double y
property double z
property uchar red
property uchar green
property uchar blue
end_header
-0.0750252 -0.27556 1.5105
0.002
96 148 31 31 31 33
58 153 33 173 175 171
97 148 32 32 32 33
98 148 33 118 118 119
56 164 34 65 67 70
178 197 53 153 162 157
203 146 55 92 90 93
180 165 49 33 34 35
22 149 34 52 53 51
58 149 33 80 81 80
58 149 32 87 88 88
98 148 32 92 92 93
40 39 12 51 51 55
169 199 51 54 54 56
133 147 37 29 29 32
199 195 55 37 39 40
25 149 33 111 110 115
197 228 57 112 119 116
57 149 33 150 151 150
60 149 32 31 31 35
46 196 36 84 81 90
166 160 48 54 53 58
56 161 36 174 174 170
61 149 31 50 48 53
76 243 37 46 47 46
204 31 38 54 53 56
62 149 31 118 117 120
93 200 35 61 59 65
9 62 24 109 108 110
166 147 46 164 163 164
199 223 58 76 70 78
167 147 47 80 79 80
14 40 18 172 171 174
149 188 46 87 85 86
171 160 50 62 62 64
169 147 46 20 20 21
170 147 46 28 29 29
170 147 47 31 32 33
171 147 47 114 115 115
116 242 44 37 37 41
21 150 35 101 102 100
23 150 33 35 36 37
24 150 33 39 38 42
70 230 39 155 152 159
25 150 34 128 127 132
59 149 31 46 47 47
199 35 35 43 42 46
189 38 35 150 152 152
61 149 32 36 35 40
177 196 52 39 39 42
40 189 36 66 67 63
153 174 45 78 79 82
200 224 58 69 74 76
94 148 34 124 124 126
191 239 55 119 121 123
96 148 33 29 30 31
154 124 41 173 175 177
167 147 46 52 50 51
171 147 48 105 107 107
23 150 32 65 66 64
148 37 26 109 113 108
58 205 38 42 45 45
98 160 33 62 62 65
24 150 34 39 37 43
62 149 32 137 136 140
130 148 37 126 125 128
132 148 36 25 24 29
6 127 35 78 78 82
13 167 37 89 88 87
133 148 36 24 24 28
168 147 47 28 27 29
18 101 30 177 176 181
154 235 48 138 142 141
95 149 32 47 47 48
73 235 37 72 77 75
98 149 33 112 111 114
170 147 48 43 45 45
39 187 35 150 152 147
204 147 54 53 51 55
133 218 43 26 26 29
42 189 35 39 39 42
20 150 35 150 151 148
23 150 34 33 33 36
144 35 22 81 85 81
25 150 35 170 169 176
57 150 32 154 155 154
169 199 52 72 69 73
58 150 32 89 91 91
94 149 32 89 90 90
85 169 32 165 170 172
76 261 39 56 61 62
156 165 46 104 101 105
96 149 31 19 19 21
133 148 37 28 27 30
169 147 47 20 20 22
198 257 57 78 75 81
191 240 52 170 172 174
203 147 55 114 113 115
205 147 55 72 72 74
154 46 27 27 28 29
154 181 47 131 132 134
55 227 42 113 110 112
97 76 23 16 16 17
57 150 33 143 144 143
135 6 15 58 61 62
157 165 45 51 52 58
61 150 31 47 47 51
57 209 38 107 107 105
136 31 19 35 34 36
141 199 45 159 165 165
4 257 49 54 51 58
61 150 32 41 40 44
130 160 37 48 47 49
62 150 32 132 132 135
135 148 38 155 154 156
193 191 54 146 144 146
167 148 47 74 74 74
98 72 22 121 122 118
23 208 41 33 32 36
168 148 47 29 29 31
20 151 35 151 153 151
22 151 34 36 37 36
77 175 31 27 27 26
185 171 50 87 85 87
8 59 21 127 126 132
23 151 34 26 27 28
23 151 33 30 30 32
24 151 33 38 37 42
29 200 41 148 146 145
25 151 34 114 113 119
146 131 38 34 35 38
6 56 20 118 121 114
97 221 40 28 28 34
75 235 38 73 71 81
171 148 47 128 129 131
171 148 48 113 114 117
37 171 35 44 47 50
21 151 35 91 92 92
24 151 34 40 39 46
42 241 43 61 60 69
112 196 40 127 134 133
62 150 33 171 170 172
96 149 33 21 21 25
189 54 36 69 69 69
131 149 38 67 65 68
132 149 36 53 53 56
172 146 48 177 179 178
134 149 37 34 35 37
74 174 31 177 177 174
117 242 42 143 144 148
135 149 38 129 130 132
171 148 49 127 129 131
95 150 32 41 42 45
132 156 37 47 47 51
116 241 43 50 51 55
95 149 31 48 48 50
166 151 48 132 130 132
96 150 31 39 39 42
50 230 43 119 116 117
96 150 33 22 21 25
130 149 37 173 172 173
100 98 23 99 99 101
40 176 35 33 33 31
76 190 31 44 43 42
134 149 36 40 41 43
147 260 50 48 54 53
145 166 43 40 39 38
168 148 46 32 32 33
119 129 34 43 43 47
149 183 46 128 128 128
57 151 33 152 154 150
95 150 31 48 48 51
9 232 46 123 119 122
13 101 30 63 64 57
83 169 32 60 61 67
96 150 32 32 32 36
98 150 33 82 81 85
184 66 37 38 37 40
98 150 34 133 133 135
47 262 44 50 50 58
132 149 37 45 45 47
203 148 54 183 182 185
204 148 54 87 85 89
58 151 31 80 80 80
60 151 31 26 26 29
64 162 32 160 159 162
60 151 32 28 28 31
62 151 32 99 99 102
62 151 33 147 146 150
2 241 50 84 86 82
97 150 32 27 26 30
153 167 45 117 116 117
22 98 30 170 170 174
166 149 47 180 179 179
167 149 46 98 98 99
207 148 56 156 158 157
21 155 33 115 119 114
23 152 34 24 24 27
8 193 44 149 148 154
24 152 34 36 35 40
65 228 39 110 104 114
93 206 39 175 174 173
25 152 35 119 117 124
139 31 19 76 79 76
131 149 36 41 40 41
76 250 37 137 137 135
98 200 40 74 70 72
70 168 31 45 47 49
168 149 47 47 47 49
15 135 31 85 89 89
169 149 46 39 39 43
204 147 56 104 102 104
170 149 47 39 40 43
171 149 48 159 163 164
134 150 37 49 51 53
161 65 35 172 174 173
204 148 56 77 76 79
170 77 39 35 36 38
205 148 56 43 42 44
89 229 39 72 70 77
109 165 36 174 172 173
117 256 45 40 39 42
20 152 35 125 127 124
68 231 38 53 54 60
21 152 33 107 109 104
192 47 36 32 33 35
24 220 42 179 177 183
205 211 61 45 43 46
22 152 33 50 51 48
94 151 33 116 117 118
135 72 27 94 96 95
131 203 41 143 145 142
78 238 38 36 37 41
31 166 33 73 71 79
94 151 32 92 93 94
95 151 32 41 42 46
75 191 33 146 147 144
96 151 32 47 47 52
97 151 32 53 52 57
97 151 33 38 37 42
132 150 37 40 40 41
132 153 37 33 32 33
133 150 36 50 50 53
204 149 56 112 110 113
155 258 52 171 170 172
205 149 56 35 34 36
22 155 34 48 51 49
185 189 53 183 183 185
25 152 36 156 154 161
54 232 44 175 179 177
180 35 35 34 35 37
58 152 31 46 47 45
116 67 21 172 172 176
60 152 32 27 27 31
120 53 22 173 174 177
61 152 33 61 60 65
184 35 35 165 168 164
206 149 56 43 43 44
21 153 33 91 93 88
30 12 10 65 65 69
23 215 41 38 37 40
34 136 32 167 169 174
22 153 34 47 48 48
94 152 33 131 133 132
23 153 33 32 33 35
23 153 34 27 27 31
25 153 34 54 53 59
89 201 34 168 174 168
165 35 29 55 55 61
207 214 60 34 34 35
95 151 31 57 57 62
142 163 41 147 146 146
70 70 16 66 66 62
154 252 50 54 53 59
96 151 33 51 50 56
83 42 10 43 42 47
21 207 41 56 58 54
97 151 34 59 58 63
168 150 46 44 44 45
186 178 52 156 154 156
169 150 46 46 45 48
122 257 42 130 124 131
137 72 28 66 66 69
169 150 47 41 41 44
169 150 48 36 36 39
78 185 31 27 27 31
171 150 48 135 138 140
25 207 42 181 179 185
122 40 18 38 37 43
205 149 55 43 41 44
152 185 47 28 27 31
20 153 34 177 180 174
24 153 35 40 38 46
72 197 35 38 36 42
154 251 50 54 54 59
131 151 37 79 78 79
132 151 37 36 35 37
135 150 37 169 173 174
166 150 47 166 165 165
167 150 47 100 98 99
118 40 19 158 160 158
96 151 31 51 50 55
130 151 36 145 144 146
133 151 36 49 49 51
23 79 23 112 116 109
21 73 18 161 164 162
134 151 37 81 83 85
134 151 38 118 121 123
114 260 44 157 160 161
209 25 38 62 62 61
167 150 48 145 144 143
170 150 47 133 135 136
95 152 32 47 48 49
95 152 31 47 48 51
160 195 49 52 51 54
96 152 32 43 43 47
25 154 35 108 107 113
167 150 46 75 74 75
205 150 55 76 74 77
114 175 37 47 47 48
83 51 10 118 119 119
205 150 56 44 43 45
58 153 32 95 96 94
60 153 31 58 59 64
60 153 32 47 48 52
61 153 32 66 66 71
61 153 33 63 63 69
62 153 33 133 133 138
5 177 43 115 113 120
96 152 31 47 46 49
97 152 32 60 60 64
170 134 45 86 84 85
76 250 38 153 153 151
204 150 55 169 168 170
49 234 42 135 140 143
206 150 56 31 30 32
207 215 62 34 34 34
21 154 34 121 124 119
21 154 33 98 102 97
31 29 13 167 166 170
23 154 34 43 45 48
78 246 39 31 29 33
77 172 30 49 52 55
67 167 31 83 87 86
139 28 18 88 88 91
24 154 35 52 52 58
62 153 32 112 112 118
83 167 33 155 153 154
114 180 39 33 32 31
167 151 47 85 84 85
168 151 47 36 35 37
99 228 40 154 160 154
168 151 46 52 50 52
171 216 53 86 86 87
41 183 34 39 38 40
171 197 53 132 127 132
169 151 46 34 33 35
169 151 47 35 35 36
169 151 48 33 32 34
207 150 57 113 113 114
40 235 43 172 168 175
80 244 39 167 165 171
119 252 47 145 144 151
94 225 41 92 89 93
193 231 53 148 155 156
24 154 33 43 44 48
25 154 34 103 102 108
25 154 36 175 174 180
62 153 34 163 163 168
131 152 37 113 113 112
167 151 48 96 95 96
208 150 56 166 168 168
129 99 31 161 162 166
145 103 35 141 142 144
57 153 33 176 177 174
164 198 50 36 36 38
132 152 37 35 35 35
190 257 53 155 155 155
133 152 37 32 31 33
133 152 36 33 33 33
148 105 37 100 100 102
96 153 32 29 30 31
97 153 32 45 46 47
97 153 33 69 69 72
129 162 40 70 73 76
119 193 39 90 88 91
167 151 49 76 74 76
58 154 32 121 123 121
58 154 31 113 116 114
59 154 31 41 43 42
66 199 39 136 132 132
22 78 25 123 123 121
194 193 54 44 45 46
60 154 31 43 43 47
89 198 32 69 66 73
117 262 45 161 159 163
188 192 52 162 171 170
22 155 33 60 65 61
23 155 33 45 48 49
123 195 40 100 98 102
139 226 46 38 35 40
100 163 33 83 85 84
137 11 14 18 18 19
24 155 35 53 53 58
104 198 40 70 65 68
62 154 33 164 163 168
134 204 43 32 33 35
98 153 33 148 148 150
13 131 33 145 144 148
166 152 48 124 122 124
133 161 38 166 171 169
59 226 42 57 57 61
167 152 48 66 63 67
169 152 47 28 28 28
188 258 54 156 157 155
169 152 48 28 28 29
47 197 36 76 74 82
170 152 49 128 129 132
8 61 20 64 64 66
24 155 36 108 108 113
95 153 31 55 56 55
6 112 31 38 39 40
205 21 43 166 167 166
202 146 56 132 130 132
98 153 32 135 135 136
25 161 36 152 149 157
135 152 36 136 136 136
193 192 54 52 50 52
66 14 10 27 27 28
204 151 56 168 167 169
176 228 52 167 171 166
208 28 40 86 86 91
206 151 57 36 34 36
96 153 31 44 46 45
144 35 24 63 66 62
131 153 39 145 144 144
133 153 36 32 32 33
134 153 36 33 32 33
134 153 37 37 37 39
135 153 37 132 132 133
166 152 47 123 121 122
5 110 30 45 47 44
208 151 58 162 162 163
112 231 44 152 147 153
118 104 28 61 59 59
165 160 49 62 62 67
94 154 33 125 127 125
95 154 32 53 53 54
96 154 32 30 31 31
111 195 40 42 43 46
205 137 54 185 184 185
148 262 49 154 155 156
6 123 34 39 38 42
59 155 30 59 61 60
61 155 32 61 60 63
95 154 33 73 74 74
97 154 33 31 31 34
24 162 35 68 66 74
98 154 32 121 120 121
98 154 33 142 141 143
172 159 48 99 99 99
206 152 56 59 56 58
207 152 57 49 50 52
208 152 57 144 146 145
21 156 35 102 104 101
164 197 49 52 50 54
23 156 34 34 35 37
24 156 34 53 52 56
78 125 24 30 30 30
76 194 33 69 68 68
100 199 38 58 55 61
165 153 48 124 122 126
168 153 47 26 25 30
169 153 47 32 32 35
107 168 36 148 152 150
57 205 39 138 139 136
205 152 57 150 146 148
6 45 17 101 103 99
207 152 56 59 59 61
80 245 39 152 150 157
22 213 42 33 33 33
58 155 32 101 102 100
61 155 31 46 45 48
62 155 33 155 154 158
168 153 48 29 29 34
170 153 48 55 57 59
206 152 55 74 72 74
134 154 37 33 33 36
80 247 38 63 61 71
21 156 36 92 94 91
95 155 33 42 43 44
13 135 33 139 144 141
97 154 31 31 31 32
135 154 38 123 124 126
78 48 10 156 157 154
60 156 32 35 35 36
46 260 44 126 121 133
96 155 31 29 29 32
97 155 32 33 33 35
21 72 22 70 70 74
98 155 34 176 176 175
152 45 28 40 40 40
165 153 47 170 169 171
136 24 17 79 79 78
206 153 56 62 60 62
21 157 36 80 82 82
21 157 35 88 91 90
39 175 35 148 148 146
22 157 34 61 65 64
39 6 8 183 181 188
23 157 34 32 33 35
25 157 35 135 133 139
60 156 31 35 36 36
155 193 46 38 39 38
61 156 32 45 44 47
96 155 33 24 24 26
165 154 48 154 154 156
166 154 48 91 90 95
167 154 48 73 73 80
168 154 48 37 37 43
93 155 33 175 177 175
23 216 41 39 38 42
132 154 38 57 56 59
133 154 37 25 25 28
48 198 37 51 53 59
165 154 47 111 110 115
148 38 25 44 45 44
100 138 33 176 178 179
168 154 47 32 32 38
162 261 52 165 166 166
57 225 41 167 167 164
43 244 42 134 135 140
169 154 48 24 25 28
170 154 47 32 34 38
171 154 49 149 150 151
25 142 31 68 68 71
204 153 57 153 151 152
7 59 19 97 99 96
132 155 37 40 40 45
93 156 34 169 171 170
164 36 29 65 66 71
75 173 30 176 177 173
94 156 34 94 95 94
95 156 33 42 42 44
133 155 37 26 26 31
204 195 57 174 174 174
135 155 37 129 130 131
181 227 54 137 135 139
171 150 50 134 137 138
39 175 34 92 94 88
21 157 34 131 134 132
62 157 33 112 111 115
96 156 32 23 24 26
185 230 52 42 42 44
32 233 42 45 48 50
27 201 40 118 113 113
148 182 46 171 172 171
97 156 33 31 30 33
197 159 54 181 177 181
97 156 32 27 27 29
6 248 51 113 112 120
187 192 51 164 172 171
98 156 33 93 92 94
206 154 56 36 35 38
206 154 57 39 41 42
98 218 41 111 112 113
21 158 34 94 96 96
22 158 34 77 79 80
95 159 33 34 34 34
208 76 48 34 34 36
23 158 34 32 33 34
23 158 35 31 31 34
28 229 42 145 140 147
62 157 32 97 96 99
78 195 33 139 145 146
97 212 38 33 33 36
95 156 32 41 42 45
166 155 47 86 85 88
167 155 47 62 61 66
127 228 44 66 71 70
143 167 42 131 134 133
167 155 48 79 78 85
205 154 56 54 52 55
207 154 58 112 116 117
133 204 43 24 24 25
6 190 43 166 162 169
208 154 57 161 164 164
22 158 35 51 52 55
165 155 48 154 153 155
140 165 41 139 141 141
90 200 33 53 59 56
169 155 47 23 24 27
64 10 7 38 39 40
169 155 48 29 30 32
38 172 34 92 98 97
195 229 57 55 64 62
170 155 49 78 80 81
77 256 37 44 46 44
147 167 43 104 103 104
171 155 50 175 176 178
171 155 49 151 153 155
205 154 57 61 59 62
110 197 41 116 122 122
187 251 54 153 150 154
93 156 33 174 174 173
99 156 33 176 176 177
27 204 42 149 152 154
38 236 41 62 62 70
93 157 33 158 159 157
132 141 37 26 25 26
93 157 34 147 147 146
200 225 58 87 93 92
185 35 36 176 179 173
133 203 44 47 49 53
193 247 53 170 171 174
94 157 33 73 74 74
128 98 32 46 46 51
136 156 38 157 159 161
11 39 16 98 101 93
170 155 50 104 105 107
96 157 33 32 33 36
97 157 33 32 33 36
92 201 34 51 55 54
98 157 34 90 89 93
207 155 57 123 128 128
134 90 30 29 30 33
99 157 34 173 173 175
52 164 36 176 176 174
9 51 18 98 100 99
9 53 18 156 157 153
134 156 38 30 32 35
204 155 57 78 76 79
162 97 39 119 117 118
13 201 42 153 161 152
57 157 34 155 157 155
78 185 32 24 24 28
42 241 42 51 50 57
204 155 56 61 60 64
77 192 32 28 30 29
73 232 38 151 150 154
21 159 35 54 56 53
134 71 28 136 138 134
78 128 24 45 45 50
79 193 35 131 130 134
22 159 35 52 53 53
61 158 32 33 32 35
41 173 33 71 70 75
52 103 25 161 160 167
62 203 41 43 42 45
181 193 53 99 91 97
42 180 34 45 45 51
168 155 46 43 44 47
206 155 57 68 73 74
2 238 49 112 112 108
61 158 33 39 39 42
63 158 33 168 167 171
21 73 19 118 121 119
169 214 54 33 33 34
180 225 53 141 138 141
98 157 35 102 101 105
166 156 48 123 121 122
79 184 31 81 79 89
167 156 48 36 35 37
206 214 59 67 65 67
167 156 47 38 39 40
24 207 42 171 169 174
168 156 47 50 52 54
191 250 54 31 31 33
169 156 47 71 76 78
61 136 31 176 177 174
169 156 48 36 40 41
170 156 48 87 91 93
115 245 45 35 34 35
171 156 49 134 138 140
83 259 40 178 172 182
171 156 50 174 177 179
114 235 43 47 48 46
24 216 43 176 174 179
203 155 56 124 121 124
204 155 55 56 56 60
134 5 12 106 112 108
207 155 58 153 158 159
12 262 51 164 159 170
24 159 35 48 47 52
24 159 36 45 44 50
60 158 33 30 31 33
25 159 36 109 108 114
172 210 55 167 167 169
23 159 35 26 26 29
172 12 27 39 39 41
93 158 33 161 162 160
94 158 34 126 125 125
95 158 32 39 39 42
183 38 39 144 143 147
46 196 37 108 106 114
97 158 33 57 58 62
97 158 34 31 33 36
33 137 32 157 160 165
170 156 50 126 129 131
7 263 48 167 166 166
206 84 47 47 46 49
206 155 56 99 104 105
178 163 50 54 52 55
21 160 35 77 80 76
53 137 29 168 174 172
23 160 34 56 57 60
61 159 33 38 38 42
93 158 34 169 170 169
98 158 34 143 143 146
140 196 47 167 163 164
204 156 56 58 57 62
13 233 48 173 175 176
120 39 19 99 100 97
197 227 56 64 72 72
206 156 57 142 149 149
22 160 35 45 47 47
25 160 37 153 152 158
140 98 33 43 43 44
98 158 35 113 114 118
167 157 48 34 31 34
18 231 46 176 180 179
168 157 47 31 31 33
117 236 43 94 95 97
168 157 48 35 35 38
80 191 35 176 176 179
154 243 51 39 37 41
169 157 48 47 50 52
27 78 23 82 81 86
130 147 39 105 105 106
205 156 57 78 83 84
97 215 39 73 74 76
206 156 58 174 181 181
167 76 38 148 147 151
24 160 34 83 83 88
189 178 51 65 66 66
61 159 32 38 39 43
207 5 33 30 29 35
62 159 35 145 145 149
94 159 33 86 85 84
80 254 39 61 59 68
182 258 53 130 128 132
96 159 33 38 39 40
97 159 33 62 63 66
11 196 42 128 124 130
23 161 36 31 31 38
98 159 33 177 177 179
22 161 35 48 50 51
23 161 34 60 62 64
23 161 35 63 62 68
25 161 37 166 164 172
60 160 32 60 62 66
61 160 33 69 70 75
39 180 35 132 134 130
31 135 31 73 72 70
61 160 34 84 84 90
62 160 34 120 120 125
177 8 26 169 168 173
94 159 32 116 116 114
124 262 45 146 146 145
96 159 32 46 48 49
97 159 34 45 47 50
134 91 29 29 28 33
166 157 50 165 162 163
82 42 10 30 29 33
25 163 34 62 61 68
187 179 52 27 26 27
171 157 47 176 176 178
204 157 56 66 68 71
204 157 55 39 40 43
117 181 39 168 169 171
205 157 56 165 170 171
24 161 35 87 86 93
62 160 33 97 97 103
166 158 50 94 91 94
80 246 37 148 146 154
168 158 48 47 48 52
166 158 49 81 78 82
131 161 41 147 152 154
204 157 57 86 90 92
80 245 38 149 147 153
19 165 38 81 84 91
115 40 20 33 32 36
93 159 35 146 145 144
95 159 34 29 28 28
17 134 33 174 172 176
98 159 36 163 164 168
168 158 47 28 27 31
169 158 47 32 32 35
58 213 38 46 45 47
131 220 44 132 131 134
171 158 48 135 136 138
19 161 36 177 177 174
20 161 36 142 143 140
62 204 39 127 129 131
21 161 36 63 65 63
24 91 24 89 91 88
171 205 52 143 146 146
22 161 36 49 50 51
185 173 51 80 78 79
94 159 35 109 107 106
170 158 48 59 61 63
109 166 38 133 132 133
171 158 47 126 127 129
195 66 47 152 151 156
88 38 12 31 28 36
203 157 56 67 65 71
188 250 54 54 50 56
19 162 39 167 166 162
25 161 34 173 170 174
43 258 43 63 61 69
93 160 35 120 119 120
41 130 29 37 38 39
79 188 32 73 73 77
94 160 34 53 53 55
176 226 50 56 58 56
95 160 34 35 36 38
78 131 25 111 113 119
96 160 33 30 31 33
97 160 33 41 42 45
97 160 34 58 59 63
87 196 34 175 172 176
165 158 51 170 167 169
77 117 24 172 174 172
210 27 42 166 167 167
131 224 44 48 50 53
19 162 37 164 164 161
160 197 49 131 134 133
19 162 38 133 131 129
25 162 34 94 91 98
168 199 52 89 87 91
25 162 35 125 122 128
153 168 44 81 80 84
92 160 36 154 154 153
99 160 33 149 147 150
194 192 56 81 78 82
203 158 56 70 73 76
151 45 28 146 145 145
204 158 56 143 147 149
24 219 43 136 135 143
25 78 23 27 28 29
135 211 43 96 95 98
92 160 35 145 145 145
135 214 43 117 120 121
97 160 32 69 69 72
98 160 32 83 81 84
135 159 38 66 66 65
74 236 38 101 105 103
131 97 31 97 98 105
5 250 52 33 31 39
166 159 50 66 64 69
138 225 43 67 64 68
166 159 49 64 64 69
169 158 48 37 37 41
17 71 19 161 165 162
172 158 48 166 166 166
203 70 48 132 132 135
18 162 39 178 178 174
189 180 51 25 26 27
21 162 36 58 58 60
96 160 34 40 42 45
167 159 48 61 65 70
170 159 48 38 38 40
11 42 18 179 176 180
85 233 41 129 135 136
170 159 47 34 33 35
26 82 24 83 82 87
190 192 52 160 162 161
80 261 39 174 177 173
171 159 48 58 58 59
155 41 27 69 67 69
116 178 38 68 68 71
156 128 42 120 120 121
18 162 38 156 156 151
20 162 38 57 55 56
131 158 40 115 113 112
26 162 35 162 159 165
100 160 33 176 174 177
173 159 48 160 160 161
27 229 43 173 170 175
165 159 48 94 93 97
199 158 54 168 165 168
18 163 38 105 104 102
91 161 36 160 159 160
92 161 36 106 105 106
207 18 41 117 115 119
92 161 35 92 91 93
93 161 36 56 54 58
109 167 37 45 43 45
195 66 45 84 82 87
93 161 35 77 77 80
6 129 32 182 184 180
93 161 34 51 51 56
95 161 33 44 43 47
96 161 34 120 123 124
117 179 38 176 177 178
96 161 33 103 106 107
161 162 46 57 56 62
135 160 38 34 34 34
167 159 49 69 74 79
124 198 40 70 74 74
172 159 47 115 115 113
134 211 42 39 38 40
198 158 54 182 181 182
18 163 37 141 141 137
81 259 35 35 36 40
26 203 42 45 42 45
23 163 35 80 81 87
24 163 34 55 56 62
23 91 25 72 74 72
180 195 52 35 37 39
24 163 35 58 58 64
39 245 41 100 103 99
76 238 38 34 34 34
149 68 29 154 156 158
165 196 50 167 167 168
75 176 31 91 92 89
91 161 35 153 152 152
190 167 50 61 62 66
98 161 33 45 44 47
35 37 12 62 63 67
99 161 33 72 70 75
100 161 33 127 124 127
164 159 49 100 98 99
30 136 32 55 54 53
158 164 47 64 61 65
198 159 55 136 131 136
150 238 51 53 52 56
201 159 55 57 58 63
203 159 57 156 161 162
17 163 37 145 144 141
153 170 45 46 51 55
62 223 42 166 166 170
20 163 36 60 58 59
176 131 48 90 86 88
94 161 35 41 41 46
97 161 34 30 32 34
164 160 50 139 135 137
184 109 45 177 177 177
164 160 49 70 67 70
40 174 35 37 39 36
166 160 49 57 60 64
197 227 58 105 113 110
173 159 47 173 173 174
180 66 40 173 173 169
88 198 33 70 68 75
198 159 54 165 161 165
199 159 54 89 86 91
122 231 42 36 40 44
196 192 55 147 145 147
20 163 37 55 55 58
23 163 34 49 50 55
24 226 42 159 158 163
27 163 33 119 115 124
55 228 42 84 82 85
92 161 34 77 76 80
180 4 26 67 67 67
99 161 34 53 50 55
137 160 39 112 111 111
187 180 52 35 34 36
138 160 39 173 173 172
169 160 49 168 169 171
170 160 47 37 37 39
188 244 54 110 106 112
148 194 45 36 37 41
171 160 48 37 36 37
171 160 46 36 36 36
172 160 47 36 36 36
25 163 33 50 51 57
26 163 33 81 77 88
208 214 59 129 131 131
101 164 34 73 75 75
90 161 35 171 170 169
79 106 22 114 114 114
16 164 38 108 106 105
152 242 50 42 40 42
17 164 38 80 77 79
139 162 40 56 55 56
17 164 39 63 61 62
20 164 37 66 67 72
90 162 35 132 132 131
92 162 34 54 54 58
100 9 10 26 27 25
102 166 35 174 177 175
26 73 22 153 155 148
14 229 44 87 85 87
93 162 34 50 52 56
117 193 39 39 39 42
108 197 40 41 44 45
152 43 29 86 86 88
94 162 34 58 59 63
10 48 19 182 181 187
198 160 54 79 73 80
95 162 34 142 146 147
96 162 33 155 159 158
101 161 33 160 159 160
161 196 49 43 41 44
138 161 39 117 115 116
24 141 33 63 63 68
167 202 52 77 77 79
163 160 48 82 80 83
201 159 56 47 50 54
202 159 57 103 108 110
18 164 38 67 65 68
18 164 37 48 47 49
9 47 18 134 132 136
7 237 49 169 172 177
24 164 34 109 113 113
202 141 56 121 115 119
26 164 35 52 51 58
26 164 34 50 51 57
95 162 35 144 147 150
143 229 47 40 39 42
31 36 13 137 138 138
95 162 33 156 159 159
17 138 34 172 175 174
97 162 33 110 112 112
81 194 33 104 100 106
187 177 52 40 39 41
98 162 33 57 59 59
19 227 43 81 81 82
99 162 33 33 33 35
101 162 33 100 98 98
197 160 53 141 138 142
170 208 52 39 39 40
199 160 55 57 54 59
174 25 30 158 161 160
168 91 40 30 29 32
199 160 54 72 70 76
41 265 45 154 154 157
200 160 56 34 36 41
14 164 40 183 182 180
150 106 38 58 58 59
27 164 34 84 81 89
28 164 34 126 122 129
75 259 39 126 119 125
199 2 32 60 58 58
91 162 34 82 81 84
102 162 33 168 168 167
139 161 39 159 158 157
200 195 54 40 39 40
184 193 51 30 33 36
200 160 55 52 54 57
113 254 43 174 173 173
192 231 53 142 149 148
161 163 46 64 65 70
15 164 38 149 148 145
16 164 37 100 98 100
26 164 33 43 47 52
94 162 36 131 136 138
74 195 34 124 121 120
6 45 18 76 78 74
97 162 34 172 175 173
157 257 52 46 48 49
102 162 34 125 124 125
101 164 35 115 118 116
159 132 42 57 57 58
174 160 47 55 53 55
56 227 42 101 100 102
198 160 53 68 63 70
41 240 41 24 24 28
4 106 31 175 177 170
201 160 55 133 139 139
69 199 39 49 44 48
14 164 39 178 178 174
29 164 34 156 152 158
89 162 34 163 163 163
98 162 32 145 148 147
171 161 48 120 120 122
34 202 40 179 182 185
157 196 49 176 178 177
173 161 48 36 35 37
18 230 44 118 124 124
196 160 53 183 179 179
84 260 39 83 79 95
174 161 48 54 53 55
171 15 28 104 104 107
196 160 54 168 166 168
205 206 61 58 61 64
199 160 53 79 76 83
14 165 39 165 165 161
15 165 38 86 86 85
3 248 50 146 147 145
93 5 3 102 102 101
187 259 54 150 151 150
18 165 37 45 47 52
89 163 34 104 102 102
90 163 34 76 74 77
91 163 34 50 49 53
92 163 34 49 50 54
97 224 38 50 50 56
93 163 34 77 79 82
94 163 36 154 158 160
94 163 35 138 142 143
140 161 40 178 178 179
162 161 49 87 84 87
25 227 41 109 105 112
163 161 47 56 56 62
164 161 47 37 39 45
3 236 50 169 169 168
172 161 48 48 48 50
9 231 46 156 153 155
176 161 48 168 167 168
19 165 39 147 150 156
20 215 43 102 102 104
25 165 34 148 153 150
100 163 34 35 36 37
154 180 46 156 156 158
9 45 17 111 111 114
127 229 46 161 166 164
102 163 34 51 49 53
103 163 35 93 89 94
132 93 29 125 125 124
139 162 39 59 57 58
140 162 39 138 137 138
140 162 40 134 133 134
167 33 29 64 63 67
198 161 53 72 70 77
36 134 31 44 43 47
205 5 38 121 119 128
16 165 37 79 79 78
18 165 38 54 56 63
25 165 33 142 148 144
26 165 33 88 92 91
116 240 43 46 47 50
11 40 18 39 38 44
171 205 54 131 132 133
118 192 39 138 138 138
27 165 33 51 54 57
92 163 35 56 59 62
162 161 47 64 63 68
127 200 41 172 175 172
7 49 22 38 39 38
164 162 49 70 77 80
15 201 40 104 110 105
169 75 37 42 42 44
201 161 56 170 176 175
36 263 43 46 46 50
13 165 39 164 162 159
149 111 38 125 125 124
15 165 37 138 138 137
181 163 51 178 177 177
27 165 34 42 45 47
141 162 40 176 175 176
163 162 47 33 37 42
165 162 48 154 161 161
165 162 49 147 154 155
153 234 49 44 45 50
177 161 49 173 172 174
177 161 48 175 175 176
79 235 39 55 53 60
135 28 21 129 128 128
77 130 27 58 57 57
198 161 54 57 59 63
204 221 61 51 49 55
78 50 12 170 171 168
200 161 54 142 147 148
3 244 50 75 77 75
11 195 44 183 178 184
196 161 52 120 117 119
13 165 38 137 137 134
128 133 34 153 152 152
87 163 34 178 177 175
168 198 52 119 114 118
17 202 40 62 64 67
115 179 37 33 33 36
186 193 51 163 170 170
173 162 48 34 34 35
182 194 52 36 39 41
174 162 48 35 33 35
153 243 52 63 62 65
186 184 52 161 159 160
176 162 49 53 51 53
57 157 33 128 128 127
14 166 38 66 65 66
17 166 38 76 77 84
31 165 34 165 161 166
89 164 33 76 74 78
89 164 34 69 67 72
135 215 42 173 174 176
204 198 60 34 35 36
92 164 34 60 64 66
92 164 35 144 149 151
45 266 44 168 168 168
92 164 36 125 130 132
171 217 55 130 131 131
173 162 49 97 98 100
176 162 50 56 54 57
11 166 39 167 166 164
28 165 34 53 54 56
30 165 33 81 76 85
178 225 52 136 134 139
148 177 45 166 166 165
31 165 35 179 176 181
63 164 31 48 51 52
87 164 33 118 116 117
93 164 35 171 176 176
173 225 50 112 117 113
140 163 40 57 54 56
41 252 40 45 46 49
141 163 41 78 78 78
194 162 52 152 148 151
133 210 43 32 31 34
195 162 53 101 97 100
154 43 28 31 32 33
171 214 53 121 124 124
10 166 39 180 179 176
148 235 49 157 160 160
48 265 42 139 140 135
27 166 34 119 124 121
58 154 33 124 124 123
28 166 34 38 42 42
30 166 33 77 75 83
29 23 12 33 32 37
4 109 30 77 79 76
135 138 37 95 97 98
32 166 34 135 131 139
27 164 35 68 63 68
2 175 42 145 147 142
69 230 39 131 126 135
32 166 35 185 181 185
95 216 40 47 46 45
86 164 33 161 160 159
103 164 35 40 38 41
184 190 51 180 178 181
109 103 28 69 70 71
134 200 44 96 93 98
90 164 35 37 38 42
109 131 33 54 52 52
59 224 39 47 48 46
99 164 33 169 171 170
117 246 42 156 156 159
5 173 40 47 47 51
211 8 38 130 131 132
100 164 34 123 127 125
102 164 33 37 35 40
63 166 31 176 180 176
135 139 35 175 174 175
104 164 35 65 62 66
105 164 36 128 124 126
80 242 40 165 167 171
178 162 50 121 119 121
194 162 53 164 161 163
24 224 45 139 136 143
196 162 52 82 78 82
197 162 53 58 58 62
198 162 54 78 83 85
124 195 38 171 171 171
199 162 55 141 147 147
190 107 46 171 174 173
17 166 39 133 135 141
26 166 34 150 153 150
25 73 21 161 161 161
190 179 53 89 90 90
86 164 34 177 176 174
148 181 46 159 159 160
106 164 36 146 144 147
140 101 34 171 172 174
206 205 61 80 84 84
106 164 35 148 147 147
53 266 45 165 165 169
163 163 47 107 112 116
31 21 11 165 165 170
162 163 47 59 62 68
163 163 48 103 108 112
113 194 40 43 43 47
136 161 38 30 32 33
164 163 48 169 175 177
61 213 42 176 175 179
187 63 39 139 138 139
11 167 39 98 96 94
185 101 47 179 180 180
135 210 44 86 86 90
4 112 34 93 96 93
11 167 38 166 165 162
40 254 42 49 48 46
162 195 49 130 128 131
12 167 38 112 111 111
131 135 34 140 140 141
13 167 39 44 43 46
4 120 33 169 170 166
102 164 35 36 37 40
164 163 47 139 144 147
40 176 34 32 33 31
174 163 48 134 135 137
9 167 39 171 170 166
137 96 30 67 67 69
15 167 38 99 100 105
37 264 44 156 159 159
16 167 38 129 130 135
151 109 39 18 18 18
16 167 39 168 170 173
87 165 33 76 75 77
88 165 33 58 57 62
88 165 34 47 47 52
89 165 33 40 40 45
6 196 44 161 167 162
91 165 34 159 162 166
40 254 41 44 42 42
208 200 61 91 92 93
91 165 35 165 169 171
142 163 42 161 160 160
162 259 53 110 110 114
176 163 48 34 32 36
177 163 50 42 40 43
10 235 48 162 167 169
14 167 37 57 57 60
40 241 41 21 22 22
22 214 40 40 40 40
33 166 35 175 172 178
87 165 32 83 83 86
135 24 20 119 119 116
60 228 39 126 133 129
89 165 34 44 44 49
43 122 27 49 48 54
74 196 34 50 46 49
90 165 35 144 147 150
19 6 8 186 186 189
107 164 35 173 173 172
142 164 42 59 58 58
193 163 52 136 130 135
115 239 44 21 21 22
194 163 52 75 69 75
198 162 55 101 108 108
169 223 52 139 146 144
10 167 38 161 160 156
30 167 33 61 66 67
80 179 31 139 139 141
31 167 34 46 47 52
79 180 31 72 71 74
64 166 31 160 163 162
103 165 34 61 63 63
104 165 34 38 41 41
105 165 36 45 44 48
211 8 35 32 33 33
106 165 36 66 63 65
107 165 36 107 104 106
54 203 35 103 106 103
142 164 40 57 57 57
135 139 36 112 113 113
162 163 48 73 75 80
196 163 53 54 55 58
130 204 43 165 165 166
197 163 54 112 117 118
177 165 50 154 155 156
198 163 54 151 157 157
9 168 39 136 135 132
24 208 42 123 121 127
11 167 40 76 73 70
59 202 38 158 156 159
28 167 33 165 171 166
62 144 31 51 50 54
81 197 33 165 169 166
112 177 39 154 154 154
34 167 35 173 170 175
65 166 31 119 123 123
89 165 35 77 79 83
171 92 41 118 120 121
144 164 42 170 167 167
161 164 48 55 57 62
52 199 35 104 99 105
162 164 47 145 148 152
193 163 51 146 140 144
20 6 8 164 164 168
161 39 27 134 135 139
196 163 54 54 57 60
182 229 52 47 47 49
108 134 33 178 179 182
22 225 41 47 46 52
21 226 42 51 52 49
11 168 39 55 54 55
193 194 55 176 179 178
116 53 21 80 80 77
4 179 42 92 94 89
12 168 39 44 45 48
84 168 32 44 46 50
13 168 38 61 64 68
15 168 38 159 162 164
135 92 29 26 26 28
6 45 20 88 90 85
15 168 39 169 171 173
16 168 39 178 179 181
34 167 34 137 133 140
61 222 40 32 31 37
102 165 35 155 157 156
161 164 47 96 99 103
134 90 28 21 21 25
117 189 39 86 87 91
50 264 44 51 51 58
192 163 52 178 174 179
9 168 40 93 91 88
186 175 51 38 37 39
66 166 31 54 58 59
175 164 49 163 164 165
175 164 50 162 163 165
176 164 50 112 113 114
177 164 49 40 40 42
24 205 42 71 73 78
181 164 51 118 117 119
41 192 36 27 27 28
11 168 40 46 45 47
11 232 46 56 53 58
172 96 42 34 34 35
197 131 53 97 96 101
67 166 31 54 56 61
15 229 46 70 66 68
120 61 21 37 38 41
90 166 35 175 177 180
103 165 33 167 170 169
143 165 42 39 38 39
7 234 48 68 66 69
144 164 43 167 165 166
115 178 38 49 49 53
161 164 46 37 40 45
5 184 42 96 98 93
179 164 50 39 36 40
195 163 51 48 47 50
196 163 52 63 67 69
30 168 33 156 162 158
31 168 33 130 135 132
31 168 34 81 86 85
65 167 31 173 177 174
42 51 15 167 170 165
150 250 51 182 176 182
103 166 35 162 165 163
23 87 25 33 36 36
103 166 34 149 152 151
104 166 34 102 106 106
15 266 50 174 174 178
105 166 35 74 77 77
162 36 28 74 73 75
106 166 36 35 35 37
107 166 36 43 42 45
187 193 51 177 184 184
75 266 42 161 160 162
79 242 38 68 69 74
108 165 37 127 124 124
149 107 37 155 154 153
145 165 43 122 121 121
97 224 39 49 51 56
145 165 42 173 172 173
156 58 31 143 144 146
194 164 52 55 54 59
204 1 32 174 181 174
195 164 52 67 70 71
134 34 19 162 161 167
196 164 53 135 141 141
197 164 54 166 172 172
197 164 53 161 166 167
104 199 41 48 54 56
131 155 39 121 121 124
8 169 39 79 77 77
8 169 40 110 108 106
23 81 24 85 85 82
9 169 39 60 59 60
32 168 34 42 44 47
96 136 30 155 155 156
33 168 33 54 55 61
33 168 34 53 53 58
191 62 41 52 54 56
34 168 34 75 72 79
113 189 40 102 102 101
66 167 31 154 159 156
109 166 37 106 104 106
107 70 23 85 84 90
146 165 43 168 168 166
147 130 39 42 40 44
193 167 52 169 175 175
102 230 39 165 168 164
160 165 47 112 117 118
98 26 14 75 75 80
161 165 47 151 154 156
182 164 51 144 143 144
187 123 48 31 28 29
191 164 52 153 150 152
192 164 52 108 104 109
146 197 46 164 170 170
191 164 51 155 152 154
193 164 53 58 56 60
195 164 53 67 72 74
10 169 39 46 45 49
30 168 34 143 147 146
42 236 43 58 55 60
187 182 51 50 50 51
36 168 36 179 176 178
59 213 37 34 33 36
160 165 46 105 109 111
131 161 40 115 118 122
174 194 52 183 179 180
179 164 49 36 33 36
205 5 37 164 163 170
194 164 53 38 40 42
2 175 41 117 119 113
7 169 39 123 122 120
153 235 50 41 43 45
119 262 45 149 147 149
9 169 40 47 45 48
10 169 40 41 40 46
24 203 42 81 78 79
68 167 31 46 48 50
47 169 34 52 50 55
72 167 31 155 153 155
88 167 34 152 154 158
184 228 54 153 149 155
188 172 52 27 27 27
104 166 36 170 172 171
23 204 42 47 44 47
105 166 36 37 39 40
206 198 58 41 41 40
52 200 37 73 70 78
38 239 40 103 103 102
160 165 48 59 63 65
178 165 50 97 98 99
109 70 23 167 168 172
22 229 42 162 167 161
131 147 36 29 28 33
182 165 51 72 71 73
170 19 30 117 117 116
192 164 53 162 158 162
60 207 39 25 25 27
80 176 31 148 147 150
178 165 51 101 102 102
190 164 51 184 180 182
142 32 21 171 174 170
5 169 41 181 182 179
6 169 39 176 176 172
32 169 34 123 128 126
130 161 39 46 47 51
36 168 34 89 85 92
205 218 59 74 70 76
126 164 41 148 153 155
37 168 35 177 176 178
83 195 31 105 102 105
106 167 35 95 97 98
146 166 44 103 102 101
156 39 26 145 145 143
163 196 48 45 41 44
34 200 37 77 81 83
182 165 52 48 47 46
190 165 51 146 141 144
184 166 51 82 80 81
191 116 46 56 56 61
192 165 52 74 71 75
135 157 37 176 178 177
152 52 27 155 156 154
143 196 46 65 61 66
112 231 42 133 131 135
193 165 51 51 54 57
152 192 47 86 91 92
194 165 52 81 87 87
5 170 40 164 164 160
6 170 39 139 139 135
109 68 20 47 46 45
34 169 34 45 47 49
35 201 40 179 181 181
36 169 35 87 85 91
61 97 23 43 45 46
90 198 32 116 113 117
113 181 40 36 34 33
37 169 35 141 139 144
67 168 31 167 171 168
14 265 48 130 129 138
22 212 39 41 41 42
68 168 31 131 135 133
186 229 54 151 151 153
142 197 45 44 45 49
69 168 31 64 68 68
73 167 31 178 176 177
107 167 36 60 62 63
114 177 37 59 59 64
111 167 37 121 118 120
159 166 47 107 112 114
22 6 6 53 56 60
7 170 40 56 56 56
115 241 44 28 29 29
8 170 39 48 47 49
71 168 31 59 58 63
72 168 31 77 74 81
153 233 49 47 46 52
172 196 54 144 139 142
106 167 36 136 138 139
81 247 40 161 159 166
109 167 36 38 37 39
154 261 51 166 164 168
111 167 38 150 147 150
160 166 46 168 174 174
182 165 50 35 33 35
166 136 45 33 33 35
185 192 52 37 37 41
184 35 34 170 174 167
12 170 40 182 184 186
105 167 36 140 143 142
38 132 28 52 52 52
135 154 37 96 96 99
147 166 45 118 117 117
79 235 38 66 63 71
178 166 50 169 173 171
128 163 40 102 105 109
154 181 46 153 154 155
179 166 51 156 158 157
32 169 35 147 151 149
47 261 44 124 119 132
38 169 36 178 177 179
150 238 49 50 49 51
110 167 36 59 57 59
180 166 51 126 128 128
182 166 49 52 52 52
169 211 51 28 28 29
32 170 35 173 177 173
38 169 35 176 174 178
147 167 44 80 78 79
61 201 40 153 150 152
190 166 51 84 79 84
193 166 51 114 120 121
9 48 17 105 108 105
193 166 52 80 87 87
33 69 21 142 144 137
194 166 52 160 167 165
74 169 33 165 163 168
152 52 30 99 98 98
5 171 40 102 102 97
7 171 39 41 42 43
192 232 54 135 141 138
8 171 39 50 50 55
10 171 39 139 140 145
10 171 40 180 180 184
121 194 40 102 100 104
115 171 38 43 44 47
33 170 34 163 167 162
18 205 39 167 173 165
34 170 35 106 111 107
37 170 34 68 67 75
37 170 35 70 68 75
171 216 51 168 168 169
136 22 19 87 86 89
38 170 35 95 93 100
69 169 31 151 155 153
180 226 52 118 115 118
93 225 40 115 111 113
108 168 36 97 101 98
76 237 38 45 47 47
109 168 36 38 40 40
112 168 37 93 90 94
146 167 44 37 35 35
189 166 50 132 126 131
190 166 52 68 63 69
70 169 31 115 119 119
154 255 50 52 51 55
4 115 35 148 152 148
73 169 31 71 68 75
117 250 45 55 53 58
73 169 32 71 68 76
114 172 37 44 44 45
108 232 41 127 134 128
131 216 43 116 114 115
169 86 41 134 131 131
136 218 42 174 176 178
75 133 27 98 99 106
108 168 37 128 132 129
113 168 38 138 137 140
167 219 52 75 74 75
146 167 45 36 35 35
147 167 45 38 36 36
109 167 38 61 61 65
22 151 35 44 45 45
24 215 42 131 130 135
23 83 26 76 79 75
2 257 49 126 130 122
167 158 49 29 31 34
4 171 41 176 174 171
8 171 41 62 62 68
16 135 32 54 56 60
71 169 31 55 58 60
149 167 45 173 172 174
149 167 44 160 158 161
183 166 50 35 34 35
44 261 44 36 38 41
42 174 35 58 58 63
114 168 38 170 171 173
35 197 37 169 165 164
181 167 51 144 144 144
182 167 51 73 74 74
182 167 50 35 35 36
187 166 51 168 163 168
207 6 38 178 176 182
188 166 51 170 166 169
188 166 50 164 160 163
5 171 41 100 100 98
168 202 51 33 33 35
197 161 52 92 89 92
7 171 41 35 38 43
40 170 35 176 175 178
148 168 45 45 43 44
203 92 49 107 104 105
182 167 52 65 65 66
188 167 51 151 147 150
173 135 48 148 152 155
93 148 34 179 178 179
189 167 51 64 59 64
192 167 51 130 136 136
133 215 43 43 43 46
152 60 31 63 63 64
154 184 47 143 144 145
193 167 51 173 179 179
4 172 41 81 81 77
160 162 48 134 132 135
5 172 40 40 41 42
87 267 45 178 178 181
7 172 40 90 91 98
8 172 40 158 160 165
108 169 36 174 178 174
34 171 34 168 173 168
35 171 34 145 150 145
12 199 43 61 65 65
36 171 35 65 69 68
21 222 41 31 31 31
38 171 34 58 58 65
114 261 45 165 166 167
39 171 35 93 92 99
144 168 43 147 150 149
181 195 53 91 97 97
40 171 35 137 135 141
22 217 43 32 32 35
61 204 40 23 23 25
74 169 31 67 65 72
196 229 55 164 172 168
109 169 37 163 166 164
110 169 37 97 99 98
112 169 37 37 38 41
136 223 42 85 83 87
114 169 38 129 128 131
191 167 50 56 59 63
57 149 34 155 156 155
71 170 31 146 150 149
72 170 31 83 86 87
75 170 32 96 93 100
94 216 39 109 110 109
171 207 51 145 146 146
111 169 37 41 43 44
153 184 45 57 59 61
113 169 38 69 68 73
156 259 52 151 150 151
3 172 41 155 154 151
8 172 42 180 184 187
166 203 52 137 136 138
113 169 37 58 57 61
201 33 38 50 48 53
117 254 45 43 44 49
208 211 59 139 139 138
114 169 39 135 134 137
59 221 40 28 29 27
115 169 39 156 154 156
11 63 20 76 75 83
170 216 53 30 30 30
115 169 38 160 158 160
7 104 30 152 154 148
118 262 45 159 157 161
82 195 32 55 52 57
166 223 52 62 60 66
187 167 50 164 160 163
78 62 12 144 147 143
137 9 13 37 35 38
41 171 35 167 165 168
39 256 41 110 110 107
41 171 34 171 169 170
73 170 32 40 43 45
115 244 43 40 38 39
111 169 38 66 69 69
140 101 33 172 173 174
133 136 35 133 132 133
183 168 51 109 109 110
63 203 41 81 83 86
184 168 52 48 47 50
4 173 41 42 43 44
155 193 45 31 31 30
150 170 46 15 17 16
77 170 32 167 165 167
77 170 31 170 168 170
79 51 11 131 131 127
180 194 52 55 49 55
78 170 32 174 172 173
76 132 26 44 44 47
148 169 45 34 35 35
81 257 41 176 173 182
151 168 45 179 179 176
132 210 44 71 69 71
188 168 50 58 56 62
189 168 50 45 47 50
195 194 54 56 58 57
113 38 16 60 61 62
190 168 51 51 55 57
133 218 42 56 56 57
191 168 51 135 141 140
114 177 38 25 25 28
108 100 27 115 114 113
7 173 41 182 183 189
35 172 35 175 179 174
69 200 36 122 127 129
36 172 35 169 173 171
36 172 34 164 170 166
39 172 35 49 51 57
40 172 35 71 70 78
71 170 32 173 175 174
99 163 35 174 176 173
72 170 32 171 174 174
161 195 48 72 70 73
97 208 37 112 113 114
110 170 37 173 175 173
115 169 37 97 94 95
148 169 44 30 30 29
149 169 46 32 32 30
149 169 45 31 31 30
3 125 34 156 158 152
189 168 49 43 44 48
39 172 34 52 54 60
42 172 34 63 62 66
11 231 46 119 115 116
72 171 31 163 166 165
185 187 52 125 122 123
72 171 32 173 177 176
73 171 31 123 126 126
51 169 35 178 180 182
74 171 31 54 56 58
76 171 31 72 71 78
111 170 38 157 161 161
113 232 44 129 126 131
113 170 38 38 40 43
202 143 56 132 131 134
114 170 37 58 57 61
23 223 41 31 30 33
77 193 33 49 50 50
114 170 38 51 50 54
4 186 42 95 97 93
77 171 31 114 111 117
77 171 32 134 131 135
78 171 31 86 85 89
170 214 55 61 62 62
147 229 48 137 133 136
115 170 37 67 67 71
128 35 19 72 71 69
185 168 51 33 32 33
210 7 35 32 32 32
187 168 52 73 71 76
207 218 60 31 38 40
198 227 56 135 141 138
170 215 52 47 47 48
42 172 33 55 53 58
42 105 24 156 159 158
74 171 32 35 36 40
3 181 44 136 139 133
79 171 31 50 50 55
81 171 31 103 105 109
43 105 24 154 155 151
184 169 52 132 132 134
58 209 38 60 61 60
2 174 42 140 142 137
4 174 41 39 39 40
142 133 40 32 34 37
5 174 40 59 59 64
43 172 34 44 44 47
55 165 33 65 66 69
79 171 32 49 50 55
21 143 32 85 86 83
187 169 51 48 48 52
40 173 35 41 43 46
111 171 38 173 178 176
26 201 42 160 155 155
154 188 45 151 152 154
150 170 45 28 30 31
184 169 51 130 130 131
27 13 10 31 32 30
38 173 34 166 171 166
156 48 29 150 153 153
41 173 34 51 51 55
43 173 34 63 64 69
113 232 45 108 106 113
74 172 31 146 149 147
78 239 38 20 20 21
39 258 41 182 181 179
76 172 32 43 44 48
113 171 39 73 76 76
188 255 54 53 49 57
109 259 44 107 100 109
114 171 38 40 40 42
186 169 51 21 20 23
156 195 49 174 176 175
78 172 32 78 78 84
80 172 31 129 133 137
30 202 41 114 119 121
81 172 31 163 167 170
152 42 29 58 56 57
187 169 50 43 44 48
78 172 30 32 33 38
140 97 32 120 121 122
112 181 40 179 179 179
79 172 31 46 48 54
175 10 25 38 40 40
80 172 30 88 90 95
135 225 42 83 87 84
66 10 5 56 57 55
186 170 52 49 47 50
185 170 50 125 123 124
185 170 51 146 144 146
98 207 40 105 105 108
3 175 42 45 46 44
150 40 27 34 34 36
40 174 34 41 43 38
42 174 34 61 60 65
43 174 35 148 147 151
112 172 38 174 175 175
113 172 38 116 116 116
43 174 34 129 129 133
75 173 31 154 155 153
79 173 31 111 113 117
23 78 21 180 182 176
76 176 31 37 38 36
86 196 33 122 119 124
78 173 31 30 31 35
115 172 38 27 27 29
130 33 19 145 146 143
2 176 42 117 119 113
3 176 42 60 62 59
23 227 43 64 64 72
160 196 50 36 37 39
116 187 39 49 49 51
3 176 41 69 71 68
191 191 53 46 46 47
76 173 30 61 63 62
114 172 39 32 31 30
186 171 51 50 48 50
152 246 51 24 23 27
117 169 37 42 40 44
4 176 41 47 47 49
78 177 31 29 30 32
78 173 30 31 33 37
112 172 39 176 177 176
40 175 34 36 37 32
42 175 34 54 53 58
42 256 42 53 53 60
43 175 35 117 116 120
76 174 30 49 49 47
152 128 41 113 115 117
52 200 35 80 78 86
112 173 39 165 164 163
40 175 33 35 36 33
77 174 31 31 31 31
113 173 39 77 76 76
2 177 42 95 99 92
3 177 42 68 70 66
175 161 50 149 149 151
38 175 34 160 161 157
78 174 30 32 33 35
187 171 50 32 32 34
59 140 29 35 37 35
41 175 35 19 18 23
21 220 42 39 41 38
42 175 35 46 46 51
49 198 36 75 71 79
149 173 45 59 57 58
42 176 35 35 35 40
64 138 32 158 160 165
112 174 38 147 147 146
23 95 23 165 167 164
80 250 36 86 86 90
38 176 35 152 152 149
21 218 42 44 47 44
111 262 45 170 172 174
41 176 33 23 23 23
113 174 39 53 53 52
53 231 44 121 127 126
148 173 45 129 126 127
3 178 42 66 68 65
23 223 42 34 33 38
42 176 34 30 29 35
27 139 34 106 108 113
77 175 30 29 30 28
52 202 36 166 171 163
78 175 30 23 24 24
79 175 31 70 69 73
39 176 35 47 48 44
41 176 35 18 18 22
79 175 30 58 58 61
186 172 49 49 47 48
76 175 30 44 45 43
11 66 19 162 165 163
186 173 49 30 28 29
187 173 51 18 18 18
6 178 43 145 142 148
41 177 34 22 23 25
117 39 18 151 155 148
22 92 27 79 80 79
42 177 34 31 31 35
60 220 39 31 30 31
112 175 38 131 131 131
57 218 39 145 145 143
22 204 39 52 51 57
165 225 51 88 96 97
98 207 39 115 116 118
113 175 38 42 41 42
38 177 34 162 164 158
151 256 50 69 63 72
83 195 32 96 93 97
42 177 35 36 36 41
91 227 41 78 75 79
156 255 51 69 67 72
43 177 35 113 113 118
114 175 38 22 22 23
115 175 37 26 26 29
148 174 45 115 113 113
149 174 45 63 60 61
21 203 39 98 95 104
134 90 29 25 24 28
23 225 43 54 54 60
6 179 43 120 117 124
39 177 35 67 68 65
117 121 33 167 167 170
23 217 43 31 30 36
77 176 30 24 24 23
3 179 44 121 124 120
172 20 26 37 37 39
3 179 43 124 127 123
78 176 31 23 23 24
113 175 39 55 54 54
186 173 51 27 25 27
135 216 44 81 81 84
75 176 30 142 143 140
188 174 52 28 28 29
5 179 43 52 51 55
154 248 50 52 53 57
144 258 48 176 173 179
169 207 52 46 47 50
97 228 40 168 171 169
38 178 35 148 149 145
78 257 38 42 42 43
40 178 34 27 28 26
76 240 37 34 36 35
42 178 35 35 36 40
43 178 35 121 121 126
43 178 34 83 83 88
44 177 35 179 178 183
112 176 39 147 146 146
153 186 46 56 57 60
196 100 47 64 66 68
148 175 45 139 139 140
149 175 45 52 51 52
6 179 44 174 171 177
18 36 17 59 57 64
41 178 35 42 44 46
7 56 22 67 68 65
15 265 47 176 175 181
202 220 61 153 147 152
80 176 32 132 131 136
113 176 38 43 42 43
148 175 46 145 144 144
149 259 48 164 169 165
186 174 51 33 31 33
188 174 51 31 32 33
6 180 43 108 107 114
49 200 37 91 97 92
44 178 34 160 160 164
181 194 52 45 44 48
14 40 17 164 163 170
48 264 42 148 148 145
76 177 31 35 36 34
77 42 11 142 142 141
14 68 19 152 154 154
79 177 31 50 50 54
207 15 42 117 117 120
7 180 44 184 183 189
42 178 34 42 43 46
116 176 38 41 42 46
116 176 39 34 35 38
113 188 40 112 112 111
148 176 45 141 141 141
188 175 51 45 46 49
77 257 37 91 89 89
145 38 26 139 138 141
43 179 35 141 141 147
75 178 32 136 137 134
18 138 33 139 142 141
75 178 31 66 66 64
62 214 41 178 178 181
169 142 48 27 29 31
113 177 39 79 79 80
149 176 46 57 57 56
39 191 35 127 128 124
42 191 35 40 39 46
173 85 40 171 174 175
185 175 52 141 140 141
5 181 42 90 92 88
197 226 57 48 48 51
42 179 34 45 46 50
82 258 36 118 110 121
43 179 34 76 75 82
171 223 52 37 39 38
115 194 40 131 137 138
74 178 32 178 179 176
76 178 32 41 42 40
124 68 26 36 34 36
77 178 31 24 25 26
78 178 31 44 45 48
79 178 31 53 53 57
80 178 31 147 147 151
103 33 14 36 35 40
107 196 41 142 138 138
154 236 49 134 139 139
114 177 39 23 21 25
102 32 13 57 59 60
189 175 51 61 64 66
177 161 50 170 168 171
4 181 44 90 93 88
6 181 43 97 96 103
4 181 42 153 155 150
6 126 32 39 41 40
78 178 30 37 38 39
27 203 40 43 44 47
132 214 42 35 35 38
117 177 38 152 153 155
78 237 37 33 34 37
31 28 13 167 165 169
185 176 52 152 152 153
186 176 51 41 40 42
187 176 51 36 36 39
188 176 51 46 47 50
189 176 51 64 66 67
43 180 35 150 149 155
129 226 46 30 36 40
113 178 39 107 107 107
95 202 38 51 47 56
114 178 39 36 36 38
114 178 38 43 42 45
186 176 52 82 82 83
190 176 51 166 170 170
4 182 44 118 121 114
4 182 43 114 115 109
7 182 43 128 127 134
114 182 38 29 29 31
39 180 36 152 154 151
173 197 51 44 43 48
76 179 32 70 71 69
76 179 31 43 45 42
152 46 27 33 32 31
171 212 53 49 52 52
77 179 31 34 36 35
42 126 28 32 31 34
78 179 31 43 44 46
27 82 25 154 154 159
10 196 43 94 91 98
117 178 38 166 167 168
207 204 62 93 97 97
26 203 41 38 38 41
150 177 46 42 42 42
5 182 43 75 76 72
29 21 13 49 48 54
77 179 30 42 44 45
78 179 30 52 54 55
149 124 42 172 171 170
117 178 39 173 174 174
68 13 10 138 138 141
148 177 46 144 143 143
151 177 45 50 49 51
186 176 50 24 23 26
39 181 35 151 152 147
41 181 34 37 36 37
149 178 46 121 119 118
187 177 51 42 42 43
188 177 50 39 40 43
196 227 57 47 47 52
40 236 43 160 154 162
147 192 47 178 174 176
51 265 43 64 68 66
113 179 38 77 77 77
114 179 38 50 49 50
160 100 39 41 41 46
150 178 46 55 53 54
151 178 45 36 35 36
195 194 56 59 63 65
147 258 50 91 82 93
151 178 44 50 49 51
133 86 30 123 123 125
8 196 42 125 129 126
75 180 32 176 177 175
76 180 32 122 123 120
155 194 48 111 114 113
77 180 31 46 47 46
194 100 43 116 114 114
8 45 20 80 80 80
80 180 32 151 150 153
5 183 42 118 120 114
204 196 59 115 113 116
44 67 17 160 159 165
42 181 34 92 91 95
50 264 45 43 43 48
150 182 47 33 33 34
77 180 32 42 44 42
115 46 21 113 112 111
116 179 39 94 95 97
141 101 33 149 150 152
152 180 45 44 44 46
152 178 45 36 37 40
203 34 36 138 136 142
76 180 31 104 105 102
150 179 46 50 48 48
76 238 36 33 32 32
152 178 47 111 111 115
187 178 52 34 33 34
195 227 55 55 54 60
187 178 51 38 36 38
38 38 12 53 58 60
190 178 53 108 108 110
40 182 35 38 38 36
58 217 39 41 43 42
112 180 39 178 178 176
113 180 39 106 105 104
9 53 19 85 86 83
114 179 39 40 39 39
149 179 45 138 136 136
150 179 45 51 50 50
99 27 14 54 54 59
151 179 45 27 26 27
100 24 11 33 34 34
96 226 40 103 108 108
132 215 42 44 44 46
153 179 47 127 128 130
131 136 34 44 43 46
75 181 32 178 179 178
153 179 46 134 135 137
77 188 31 49 48 48
189 178 52 48 49 49
133 213 42 30 30 34
77 181 31 47 48 47
186 230 54 80 79 84
118 238 45 132 134 139
78 181 31 27 28 29
114 180 38 31 30 30
133 202 44 55 52 56
6 184 42 48 48 50
43 182 36 126 125 131
79 181 31 59 59 62
80 181 32 150 150 154
115 180 38 34 33 36
189 178 53 55 54 56
197 256 55 54 52 59
4 184 42 166 168 161
7 50 22 58 58 57
167 199 52 47 46 51
7 184 44 179 177 184
114 240 45 33 33 34
3 112 34 142 145 140
8 184 44 185 184 190
40 183 34 69 69 66
40 183 35 45 45 42
77 181 32 34 36 33
33 133 32 175 175 172
78 181 32 30 30 34
186 179 51 133 131 133
39 183 35 117 117 114
170 215 56 117 119 119
80 181 33 126 124 130
112 181 39 173 173 171
101 18 10 31 31 30
135 205 45 132 132 135
30 203 41 158 161 163
116 180 40 72 73 75
59 215 40 28 28 30
130 200 40 48 48 49
151 180 45 29 29 31
151 180 46 30 29 31
103 22 13 181 180 183
153 180 47 97 97 100
5 185 42 81 83 80
93 203 38 107 108 107
6 185 43 64 63 72
61 205 39 24 24 26
116 187 41 118 119 121
77 182 31 37 38 35
77 122 22 38 37 38
77 182 32 29 30 29
23 76 24 86 87 84
14 229 45 128 124 126
79 181 33 48 47 53
114 181 38 31 30 32
115 181 38 32 32 34
188 179 52 26 24 26
189 179 53 45 45 46
4 185 43 132 133 129
80 182 33 146 145 151
200 69 47 151 150 154
206 205 62 76 80 80
190 232 53 57 62 63
115 181 39 26 26 28
191 254 53 33 33 36
80 257 39 95 92 101
44 183 36 174 173 177
4 241 52 88 86 95
131 145 39 159 158 157
186 180 52 147 146 146
191 179 52 152 155 154
41 184 34 30 30 30
190 120 45 151 155 156
13 197 42 131 127 135
43 184 36 84 82 88
154 243 49 136 135 138
79 182 31 76 75 80
121 261 44 169 166 170
149 181 46 113 112 113
152 181 46 33 33 36
152 181 45 38 38 40
