ply
format ascii 1.0
comment Created by Open3D
element vertex 371
property double x
property double y
property double z
end_header
202 2 33
109 5 9
179 5 25
208 6 36
95 5 5
132 5 13
144 5 16
169 6 23
75 5 3
22 6 7
38 5 6
58 6 4
68 8 6
31 8 9
102 8 9
172 10 25
137 9 15
98 8 5
65 12 8
208 12 37
28 13 9
205 15 39
100 15 11
172 16 27
136 16 16
64 18 9
28 19 10
207 19 39
208 21 37
100 21 12
172 22 28
136 23 17
27 25 12
208 25 40
64 25 10
170 27 29
99 26 13
135 30 19
29 31 13
66 32 11
203 31 37
174 32 31
103 32 14
165 34 28
141 34 22
23 34 15
127 36 19
197 35 34
183 36 35
110 37 17
36 37 13
73 37 11
90 37 12
15 37 16
158 38 26
148 38 26
190 40 35
48 39 12
117 41 19
8 41 17
122 41 18
42 42 12
82 42 10
187 42 38
153 43 27
79 45 10
189 47 36
117 48 20
7 48 19
44 49 13
153 50 28
81 50 11
190 53 37
7 55 20
117 55 20
44 56 14
153 57 30
80 57 12
189 58 37
118 62 22
44 62 15
8 62 22
188 63 39
81 64 14
154 64 31
197 66 44
13 66 21
112 66 21
179 67 37
39 67 17
161 67 34
124 68 24
74 68 16
145 68 28
204 70 46
90 69 18
102 70 22
56 70 17
20 71 20
170 71 37
31 71 21
132 72 26
166 74 37
65 72 19
137 73 28
96 74 20
25 75 22
206 76 48
61 77 20
24 78 22
133 80 27
170 80 38
97 80 22
61 83 22
24 83 24
205 82 48
134 87 28
97 87 23
169 87 39
61 88 22
24 88 24
206 89 49
23 92 25
98 94 24
133 94 30
170 94 40
62 95 22
201 95 47
25 97 25
162 98 39
140 99 32
18 99 28
179 99 43
194 99 45
104 99 26
128 98 31
54 100 24
69 101 22
33 102 24
146 102 36
10 103 29
47 103 24
155 103 37
113 104 29
186 104 44
76 106 22
40 106 24
116 108 29
4 109 31
151 110 37
42 112 24
187 111 45
78 114 22
115 114 30
5 115 33
151 116 38
42 118 26
188 119 46
6 120 32
115 121 31
79 121 23
151 123 39
186 126 47
42 125 27
5 126 34
77 128 24
114 128 32
194 128 50
152 128 40
40 131 28
10 131 33
122 131 33
178 131 46
142 132 39
85 132 26
202 132 53
162 133 43
104 133 32
50 134 28
170 135 46
92 136 28
17 136 32
129 135 34
72 133 27
30 136 31
135 136 38
63 136 30
97 138 31
205 138 55
57 138 28
23 140 32
168 141 45
132 142 36
22 144 33
60 144 31
203 144 55
95 144 31
169 147 47
132 148 37
23 148 33
59 150 32
96 151 32
205 152 56
168 153 48
22 155 34
132 155 37
60 157 32
95 159 33
201 158 55
170 160 48
23 161 34
129 161 39
161 162 47
195 163 52
139 163 40
58 163 33
17 164 37
102 163 34
180 164 50
88 165 33
68 166 31
120 166 38
154 167 45
145 166 43
49 167 34
31 167 34
188 168 50
110 167 37
10 168 39
80 169 31
74 170 31
150 172 44
39 171 34
115 172 38
186 173 51
4 173 41
43 174 34
188 177 51
77 177 31
114 178 38
40 179 34
151 179 45
4 180 42
188 183 51
78 183 31
41 186 35
152 186 46
115 185 39
4 187 42
78 189 32
189 190 52
150 192 46
41 193 35
113 192 39
76 194 33
180 194 52
5 193 44
198 194 55
160 195 48
122 195 39
85 196 32
173 196 52
141 197 45
45 197 36
11 197 42
104 197 40
205 198 59
69 198 37
33 199 38
129 199 40
167 200 50
92 200 35
97 202 38
54 201 36
134 201 43
17 202 40
61 202 39
25 203 40
169 205 52
205 205 61
58 207 38
132 208 42
95 208 38
21 209 40
169 211 52
205 211 59
133 214 43
59 214 39
96 215 39
22 215 41
169 217 53
206 217 60
58 218 39
133 220 43
21 221 42
95 221 39
168 222 52
201 222 59
60 225 40
176 225 51
23 227 42
195 227 56
99 227 39
136 226 44
125 227 44
160 227 51
183 229 53
15 229 45
89 229 40
53 229 42
145 230 47
108 230 42
67 231 38
190 232 54
119 232 43
31 232 41
8 233 47
153 233 49
81 233 39
44 235 42
75 235 37
114 235 43
188 237 53
38 236 41
150 238 49
3 238 49
77 241 37
190 241 54
153 242 50
41 242 41
115 242 43
3 244 50
190 247 53
78 247 37
40 248 41
152 248 50
115 249 44
4 250 50
41 252 42
78 254 37
191 255 54
154 255 50
117 255 44
3 256 50
40 258 42
184 257 53
197 257 56
148 259 49
160 259 52
121 260 45
8 260 50
110 260 44
81 259 38
44 262 43
126 262 45
9 262 47
73 263 40
86 264 40
144 262 49
34 264 44
13 265 48
51 264 43
116 264 45
79 265 42
57 36 12
97 32 13
50 66 16
87 100 23
121 101 30
93 97 24
82 103 23