ply
format ascii 1.0
comment VCGLIB generated
element vertex 1514
property float x
property float y
property float z
property float nx
property float ny
property float nz
property uchar red
property uchar green
property uchar blue
property uchar alpha
element face 0
property list uchar int vertex_indices
end_header
63 97 79 0 0 0 103 102 105 255 
111 91 131 0 0 0 71 70 74 255 
114 91 133 0 0 0 66 66 71 255 
115 91 133 0 0 0 86 86 89 255 
128 95 141 0 0 0 60 62 59 255 
61 117 75 0 0 0 141 142 144 255 
123 118 137 0 0 0 114 115 117 255 
83 51 107 0 0 0 119 118 123 255 
61 97 76 0 0 0 84 83 86 255 
64 97 80 0 0 0 75 75 77 255 
65 97 80 0 0 0 92 92 94 255 
110 110 129 0 0 0 93 93 94 255 
79 95 99 0 0 0 73 73 78 255 
74 63 93 0 0 0 90 91 92 255 
73 100 90 0 0 0 129 131 130 255 
78 16 99 0 0 0 75 74 77 255 
121 95 136 0 0 0 111 111 111 255 
60 98 74 0 0 0 117 118 117 255 
61 98 75 0 0 0 80 80 80 255 
62 98 76 0 0 0 89 89 92 255 
62 98 77 0 0 0 105 104 108 255 
109 92 129 0 0 0 130 130 131 255 
109 92 130 0 0 0 113 114 115 255 
110 92 130 0 0 0 81 81 83 255 
111 92 131 0 0 0 109 109 113 255 
114 92 133 0 0 0 116 116 120 255 
101 101 124 0 0 0 86 84 88 255 
116 92 134 0 0 0 78 78 80 255 
126 91 138 0 0 0 105 106 104 255 
91 112 113 0 0 0 144 144 142 255 
88 103 111 0 0 0 102 103 104 255 
64 98 80 0 0 0 123 123 126 255 
117 104 135 0 0 0 93 93 92 255 
65 98 80 0 0 0 107 108 109 255 
65 98 81 0 0 0 80 81 81 255 
115 92 133 0 0 0 109 108 113 255 
90 38 116 0 0 0 112 113 112 255 
60 99 74 0 0 0 92 92 92 255 
69 6 85 0 0 0 124 125 125 255 
61 99 75 0 0 0 93 94 95 255 
66 98 81 0 0 0 90 90 91 255 
77 96 96 0 0 0 75 75 77 255 
80 96 100 0 0 0 115 114 117 255 
88 61 110 0 0 0 97 97 99 255 
81 31 105 0 0 0 145 146 145 255 
80 96 101 0 0 0 83 83 85 255 
125 98 140 0 0 0 119 121 125 255 
109 93 129 0 0 0 111 111 112 255 
109 93 130 0 0 0 82 83 85 255 
72 102 90 0 0 0 89 91 91 255 
110 93 130 0 0 0 88 89 90 255 
125 92 138 0 0 0 122 122 121 255 
127 92 139 0 0 0 68 69 66 255 
128 114 140 0 0 0 68 69 70 255 
108 103 130 0 0 0 102 103 103 255 
91 57 114 0 0 0 54 52 56 255 
59 99 73 0 0 0 149 150 149 255 
78 54 102 0 0 0 77 77 78 255 
66 98 82 0 0 0 114 116 115 255 
76 97 95 0 0 0 76 77 78 255 
80 96 102 0 0 0 73 74 73 255 
115 107 133 0 0 0 66 65 69 255 
81 96 102 0 0 0 92 93 93 255 
55 29 69 0 0 0 118 118 120 255 
116 93 134 0 0 0 120 119 123 255 
126 92 139 0 0 0 37 38 37 255 
70 68 88 0 0 0 91 92 91 255 
100 84 122 0 0 0 132 131 132 255 
96 88 122 0 0 0 118 119 120 255 
65 99 80 0 0 0 118 117 121 255 
91 56 114 0 0 0 63 62 61 255 
125 93 138 0 0 0 81 81 82 255 
91 37 116 0 0 0 123 124 125 255 
126 93 139 0 0 0 54 54 54 255 
127 93 139 0 0 0 96 97 96 255 
101 98 125 0 0 0 68 67 68 255 
59 100 72 0 0 0 130 131 130 255 
60 100 74 0 0 0 96 96 97 255 
55 27 70 0 0 0 118 120 117 255 
81 97 102 0 0 0 91 91 92 255 
89 96 112 0 0 0 108 108 109 255 
81 47 102 0 0 0 87 86 88 255 
107 94 129 0 0 0 111 111 111 255 
75 98 92 0 0 0 117 118 119 255 
75 98 93 0 0 0 86 87 88 255 
107 94 128 0 0 0 131 130 131 255 
117 94 134 0 0 0 137 136 141 255 
118 94 135 0 0 0 90 90 92 255 
124 94 138 0 0 0 103 104 102 255 
89 37 115 0 0 0 112 114 110 255 
75 61 94 0 0 0 74 74 76 255 
58 101 71 0 0 0 129 130 129 255 
59 101 73 0 0 0 88 89 90 255 
66 100 82 0 0 0 113 113 114 255 
67 100 83 0 0 0 89 89 89 255 
74 99 92 0 0 0 87 87 88 255 
81 98 102 0 0 0 127 127 128 255 
82 97 103 0 0 0 97 98 99 255 
89 97 111 0 0 0 98 98 97 255 
74 40 94 0 0 0 108 109 104 255 
74 44 93 0 0 0 85 85 88 255 
90 96 113 0 0 0 89 88 90 255 
107 95 128 0 0 0 102 102 103 255 
91 113 113 0 0 0 96 96 95 255 
108 95 129 0 0 0 84 85 86 255 
79 79 99 0 0 0 89 87 90 255 
57 101 71 0 0 0 139 140 139 255 
126 115 138 0 0 0 42 41 44 255 
75 99 93 0 0 0 93 93 95 255 
91 39 113 0 0 0 90 88 92 255 
118 95 136 0 0 0 82 81 83 255 
124 94 139 0 0 0 40 43 41 255 
65 66 82 0 0 0 95 95 95 255 
77 19 97 0 0 0 139 139 141 255 
57 102 71 0 0 0 78 80 79 255 
58 102 72 0 0 0 91 93 94 255 
74 100 91 0 0 0 89 90 89 255 
83 98 104 0 0 0 89 89 89 255 
106 96 127 0 0 0 112 112 112 255 
73 120 90 0 0 0 48 48 49 255 
78 96 96 0 0 0 116 116 118 255 
107 96 128 0 0 0 90 91 92 255 
85 48 107 0 0 0 133 135 135 255 
119 95 136 0 0 0 105 105 107 255 
111 24 137 0 0 0 48 47 47 255 
120 95 136 0 0 0 72 71 73 255 
124 95 138 0 0 0 80 81 79 255 
124 95 139 0 0 0 83 84 82 255 
93 59 116 0 0 0 80 81 84 255 
127 95 140 0 0 0 69 71 69 255 
81 32 102 0 0 0 72 69 72 255 
82 83 104 0 0 0 97 95 97 255 
67 101 83 0 0 0 117 116 118 255 
68 101 84 0 0 0 96 95 96 255 
86 87 110 0 0 0 118 118 121 255 
69 101 85 0 0 0 98 98 96 255 
105 96 127 0 0 0 134 135 134 255 
122 95 137 0 0 0 107 106 105 255 
126 95 140 0 0 0 101 101 100 255 
58 30 72 0 0 0 47 45 50 255 
56 103 70 0 0 0 65 67 64 255 
57 103 70 0 0 0 83 85 83 255 
57 103 71 0 0 0 82 84 83 255 
58 102 71 0 0 0 94 96 96 255 
67 101 84 0 0 0 92 92 93 255 
63 33 78 0 0 0 93 92 96 255 
75 116 93 0 0 0 84 84 84 255 
73 101 90 0 0 0 82 83 84 255 
96 3 123 0 0 0 125 125 127 255 
73 100 91 0 0 0 82 83 83 255 
82 99 104 0 0 0 113 113 115 255 
84 99 106 0 0 0 75 74 74 255 
87 98 109 0 0 0 147 147 146 255 
87 98 110 0 0 0 114 115 114 255 
120 96 136 0 0 0 119 119 122 255 
122 96 138 0 0 0 53 52 52 255 
61 110 77 0 0 0 83 83 82 255 
123 96 138 0 0 0 54 52 53 255 
129 110 139 0 0 0 44 43 43 255 
59 77 74 0 0 0 107 107 108 255 
65 95 81 0 0 0 140 141 142 255 
73 65 92 0 0 0 145 146 146 255 
72 101 89 0 0 0 124 125 122 255 
87 99 110 0 0 0 71 71 71 255 
88 99 110 0 0 0 97 98 98 255 
96 27 120 0 0 0 51 51 49 255 
89 39 111 0 0 0 113 110 114 255 
124 96 138 0 0 0 55 53 54 255 
125 96 139 0 0 0 69 69 70 255 
126 96 140 0 0 0 50 51 51 255 
127 96 140 0 0 0 51 52 54 255 
83 65 105 0 0 0 121 123 119 255 
66 55 85 0 0 0 127 126 131 255 
69 29 87 0 0 0 151 152 151 255 
64 56 82 0 0 0 108 109 109 255 
70 102 87 0 0 0 76 76 75 255 
83 100 105 0 0 0 132 131 132 255 
84 99 107 0 0 0 87 86 85 255 
122 40 139 0 0 0 111 113 112 255 
104 97 126 0 0 0 117 119 115 255 
86 119 109 0 0 0 56 54 55 255 
70 102 88 0 0 0 98 97 96 255 
73 102 90 0 0 0 127 129 131 255 
84 100 107 0 0 0 67 66 66 255 
84 117 105 0 0 0 101 100 102 255 
86 100 109 0 0 0 75 76 73 255 
87 100 110 0 0 0 97 98 98 255 
84 26 107 0 0 0 82 82 82 255 
100 20 127 0 0 0 138 138 140 255 
104 98 127 0 0 0 90 91 88 255 
122 97 137 0 0 0 97 96 98 255 
113 106 131 0 0 0 88 85 87 255 
124 97 138 0 0 0 50 49 52 255 
125 97 139 0 0 0 50 50 53 255 
109 103 130 0 0 0 118 119 120 255 
93 11 117 0 0 0 72 70 74 255 
57 104 70 0 0 0 77 78 77 255 
68 103 86 0 0 0 115 114 114 255 
70 103 86 0 0 0 111 110 110 255 
111 27 135 0 0 0 53 51 55 255 
85 100 108 0 0 0 94 94 92 255 
126 97 139 0 0 0 103 103 106 255 
126 97 140 0 0 0 84 86 90 255 
127 114 140 0 0 0 56 58 59 255 
107 101 128 0 0 0 112 112 113 255 
69 103 87 0 0 0 82 82 80 255 
70 103 87 0 0 0 61 60 60 255 
70 103 88 0 0 0 44 43 43 255 
72 103 89 0 0 0 73 73 73 255 
85 101 107 0 0 0 63 61 61 255 
72 73 92 0 0 0 96 96 96 255 
78 95 96 0 0 0 124 122 125 255 
79 110 97 0 0 0 87 87 88 255 
86 101 108 0 0 0 55 54 53 255 
92 42 117 0 0 0 79 79 82 255 
71 70 90 0 0 0 131 133 133 255 
122 98 137 0 0 0 78 77 80 255 
87 54 111 0 0 0 83 83 85 255 
77 109 97 0 0 0 120 120 118 255 
67 49 82 0 0 0 135 136 136 255 
85 101 108 0 0 0 47 46 46 255 
121 98 137 0 0 0 121 121 122 255 
123 98 138 0 0 0 36 35 39 255 
86 100 108 0 0 0 81 82 80 255 
91 112 114 0 0 0 98 97 97 255 
107 115 127 0 0 0 103 105 104 255 
69 104 87 0 0 0 49 49 49 255 
70 104 87 0 0 0 58 56 58 255 
131 113 141 0 0 0 98 99 100 255 
84 102 107 0 0 0 52 51 52 255 
72 105 88 0 0 0 33 32 33 255 
85 102 107 0 0 0 60 58 59 255 
101 67 126 0 0 0 149 149 152 255 
122 99 138 0 0 0 66 66 69 255 
104 34 130 0 0 0 106 107 101 255 
67 36 86 0 0 0 72 69 75 255 
122 113 137 0 0 0 65 64 65 255 
86 102 107 0 0 0 57 55 56 255 
105 100 127 0 0 0 95 96 96 255 
120 99 137 0 0 0 133 132 134 255 
121 99 138 0 0 0 59 59 61 255 
80 110 98 0 0 0 69 69 70 255 
70 105 87 0 0 0 49 48 51 255 
83 103 105 0 0 0 143 141 142 255 
84 103 106 0 0 0 85 83 85 255 
85 102 108 0 0 0 44 42 44 255 
87 102 110 0 0 0 115 116 116 255 
72 86 90 0 0 0 146 150 147 255 
105 101 127 0 0 0 76 76 79 255 
97 67 121 0 0 0 121 120 122 255 
80 12 100 0 0 0 63 63 60 255 
120 100 136 0 0 0 129 129 131 255 
121 100 137 0 0 0 90 90 92 255 
116 46 137 0 0 0 136 136 142 255 
115 42 135 0 0 0 139 136 139 255 
101 97 124 0 0 0 87 88 87 255 
57 11 71 0 0 0 136 138 132 255 
81 50 103 0 0 0 115 115 115 255 
68 105 85 0 0 0 127 126 127 255 
70 105 88 0 0 0 57 56 60 255 
121 119 137 0 0 0 91 92 93 255 
71 105 89 0 0 0 81 80 84 255 
72 105 89 0 0 0 68 66 71 255 
72 105 90 0 0 0 79 79 82 255 
87 103 110 0 0 0 85 85 87 255 
106 101 128 0 0 0 84 84 86 255 
118 109 133 0 0 0 88 88 92 255 
93 42 117 0 0 0 91 91 94 255 
69 106 86 0 0 0 73 72 75 255 
73 105 92 0 0 0 99 99 100 255 
84 103 107 0 0 0 48 47 49 255 
86 103 110 0 0 0 101 100 104 255 
84 47 106 0 0 0 119 121 117 255 
97 1 123 0 0 0 76 77 79 255 
75 91 95 0 0 0 106 107 105 255 
109 53 130 0 0 0 68 67 68 255 
69 106 87 0 0 0 89 88 93 255 
74 42 94 0 0 0 63 59 64 255 
72 106 90 0 0 0 105 104 107 255 
84 104 107 0 0 0 87 85 89 255 
85 104 107 0 0 0 84 83 88 255 
106 102 127 0 0 0 122 121 124 255 
92 91 115 0 0 0 64 62 63 255 
107 102 128 0 0 0 92 92 94 255 
78 29 100 0 0 0 76 75 78 255 
119 101 136 0 0 0 107 107 108 255 
120 101 137 0 0 0 79 80 82 255 
56 58 71 0 0 0 115 115 116 255 
85 83 109 0 0 0 95 96 95 255 
65 5 79 0 0 0 79 77 85 255 
73 106 92 0 0 0 93 93 94 255 
88 104 111 0 0 0 99 99 101 255 
104 102 126 0 0 0 126 124 129 255 
107 102 129 0 0 0 97 97 98 255 
118 101 136 0 0 0 136 137 138 255 
68 107 85 0 0 0 96 97 97 255 
117 23 141 0 0 0 130 131 134 255 
83 105 106 0 0 0 101 101 103 255 
119 102 137 0 0 0 98 99 100 255 
92 110 115 0 0 0 145 144 146 255 
66 108 83 0 0 0 117 117 117 255 
103 68 127 0 0 0 117 118 119 255 
108 103 129 0 0 0 103 103 106 255 
67 108 84 0 0 0 91 92 92 255 
67 71 84 0 0 0 109 109 109 255 
72 48 90 0 0 0 126 126 127 255 
73 107 92 0 0 0 138 138 139 255 
81 106 104 0 0 0 85 85 85 255 
88 105 112 0 0 0 124 125 126 255 
109 103 129 0 0 0 109 109 111 255 
99 84 122 0 0 0 151 149 151 255 
117 103 135 0 0 0 109 109 109 255 
85 47 108 0 0 0 121 122 122 255 
74 108 93 0 0 0 126 127 127 255 
71 65 89 0 0 0 124 125 125 255 
94 93 118 0 0 0 87 85 90 255 
128 96 141 0 0 0 92 93 95 255 
75 107 94 0 0 0 114 115 114 255 
94 43 119 0 0 0 64 64 67 255 
70 88 89 0 0 0 97 95 101 255 
128 93 140 0 0 0 133 135 133 255 
96 29 120 0 0 0 58 57 57 255 
75 108 94 0 0 0 85 85 86 255 
90 106 114 0 0 0 91 92 93 255 
63 110 79 0 0 0 121 123 118 255 
117 104 136 0 0 0 96 97 97 255 
118 104 136 0 0 0 91 92 92 255 
103 49 127 0 0 0 147 148 148 255 
88 80 112 0 0 0 89 89 91 255 
59 29 74 0 0 0 61 61 59 255 
111 105 132 0 0 0 101 100 98 255 
113 105 132 0 0 0 90 89 86 255 
114 105 132 0 0 0 86 85 82 255 
115 104 134 0 0 0 149 149 147 255 
116 104 134 0 0 0 116 117 114 255 
74 109 93 0 0 0 142 142 144 255 
94 91 120 0 0 0 93 94 94 255 
74 109 94 0 0 0 147 148 149 255 
104 12 133 0 0 0 102 104 104 255 
75 109 95 0 0 0 85 85 85 255 
69 36 88 0 0 0 106 108 107 255 
90 107 114 0 0 0 116 116 118 255 
90 106 115 0 0 0 123 123 122 255 
91 107 115 0 0 0 87 88 88 255 
78 92 100 0 0 0 101 101 98 255 
97 106 121 0 0 0 86 88 86 255 
114 105 133 0 0 0 104 104 100 255 
116 20 139 0 0 0 105 107 105 255 
115 105 134 0 0 0 78 78 76 255 
79 53 103 0 0 0 128 128 131 255 
76 109 96 0 0 0 85 85 85 255 
101 115 124 0 0 0 50 50 51 255 
86 19 111 0 0 0 113 114 108 255 
115 105 133 0 0 0 78 78 74 255 
58 59 73 0 0 0 97 97 96 255 
108 2 137 0 0 0 124 124 124 255 
64 94 79 0 0 0 54 54 52 255 
71 67 90 0 0 0 128 128 131 255 
76 109 97 0 0 0 79 79 78 255 
78 109 100 0 0 0 135 136 134 255 
106 75 128 0 0 0 127 127 126 255 
90 107 115 0 0 0 74 73 75 255 
92 107 116 0 0 0 115 115 113 255 
58 12 71 0 0 0 82 83 80 255 
96 107 121 0 0 0 77 79 78 255 
111 106 131 0 0 0 103 100 103 255 
112 106 131 0 0 0 80 77 80 255 
114 106 131 0 0 0 66 63 64 255 
115 106 132 0 0 0 58 56 56 255 
66 66 82 0 0 0 104 105 104 255 
76 110 96 0 0 0 90 89 91 255 
76 110 97 0 0 0 45 44 45 255 
93 108 116 0 0 0 60 58 58 255 
94 108 116 0 0 0 57 55 55 255 
94 107 118 0 0 0 114 115 111 255 
111 107 131 0 0 0 138 136 139 255 
93 112 115 0 0 0 90 90 92 255 
88 20 110 0 0 0 69 65 70 255 
113 107 131 0 0 0 93 90 94 255 
113 107 132 0 0 0 51 49 53 255 
114 107 132 0 0 0 49 46 50 255 
59 31 72 0 0 0 130 128 134 255 
81 12 102 0 0 0 86 89 84 255 
106 58 129 0 0 0 133 132 136 255 
71 66 91 0 0 0 135 136 138 255 
95 76 119 0 0 0 136 138 138 255 
93 109 116 0 0 0 62 60 62 255 
79 14 101 0 0 0 40 38 41 255 
80 94 100 0 0 0 110 110 112 255 
115 90 134 0 0 0 128 128 132 255 
96 62 121 0 0 0 78 79 79 255 
71 47 91 0 0 0 88 88 89 255 
76 111 96 0 0 0 109 108 111 255 
76 111 97 0 0 0 96 94 96 255 
89 91 114 0 0 0 140 140 140 255 
78 111 97 0 0 0 70 68 71 255 
68 68 87 0 0 0 104 105 103 255 
92 109 116 0 0 0 85 83 85 255 
95 109 117 0 0 0 57 55 58 255 
59 65 74 0 0 0 92 92 93 255 
59 119 73 0 0 0 134 135 136 255 
97 68 121 0 0 0 81 81 84 255 
77 111 96 0 0 0 130 130 132 255 
92 109 115 0 0 0 139 137 138 255 
78 36 101 0 0 0 134 134 138 255 
112 108 131 0 0 0 71 69 73 255 
113 108 132 0 0 0 114 113 118 255 
114 108 133 0 0 0 88 87 92 255 
115 108 133 0 0 0 80 80 84 255 
74 89 93 0 0 0 122 122 123 255 
123 56 141 0 0 0 125 127 122 255 
60 26 76 0 0 0 87 88 89 255 
59 60 75 0 0 0 87 87 85 255 
93 110 115 0 0 0 128 127 128 255 
93 110 116 0 0 0 96 94 98 255 
76 58 98 0 0 0 66 68 66 255 
94 110 116 0 0 0 79 77 81 255 
95 110 117 0 0 0 75 72 77 255 
117 86 136 0 0 0 106 107 109 255 
115 108 132 0 0 0 109 108 113 255 
77 112 97 0 0 0 58 58 62 255 
78 112 98 0 0 0 87 86 92 255 
111 109 130 0 0 0 83 82 83 255 
116 109 133 0 0 0 113 114 117 255 
56 85 70 0 0 0 99 100 96 255 
80 111 100 0 0 0 115 115 117 255 
117 108 133 0 0 0 105 106 110 255 
94 69 120 0 0 0 133 134 135 255 
92 111 115 0 0 0 71 71 72 255 
93 111 115 0 0 0 76 75 77 255 
127 76 140 0 0 0 115 117 115 255 
96 110 119 0 0 0 88 88 91 255 
110 109 129 0 0 0 145 145 145 255 
117 109 134 0 0 0 66 66 69 255 
127 75 140 0 0 0 129 131 129 255 
79 112 100 0 0 0 68 69 72 255 
111 110 130 0 0 0 93 93 94 255 
118 109 134 0 0 0 105 106 107 255 
121 118 136 0 0 0 115 115 116 255 
64 38 80 0 0 0 117 118 117 255 
96 111 118 0 0 0 120 119 123 255 
97 111 120 0 0 0 79 79 81 255 
109 110 129 0 0 0 92 93 93 255 
117 110 134 0 0 0 96 96 99 255 
76 114 94 0 0 0 81 81 82 255 
77 114 96 0 0 0 104 105 107 255 
104 69 128 0 0 0 115 114 118 255 
80 113 100 0 0 0 101 101 105 255 
92 112 115 0 0 0 91 91 92 255 
96 111 119 0 0 0 83 83 86 255 
128 110 139 0 0 0 70 69 69 255 
129 110 140 0 0 0 71 72 71 255 
90 57 113 0 0 0 75 73 76 255 
66 114 81 0 0 0 100 100 101 255 
75 114 94 0 0 0 117 117 117 255 
84 86 107 0 0 0 48 46 51 255 
96 112 119 0 0 0 148 149 152 255 
97 112 119 0 0 0 110 110 114 255 
109 111 129 0 0 0 87 88 89 255 
130 110 140 0 0 0 101 102 102 255 
74 115 93 0 0 0 129 129 128 255 
82 114 103 0 0 0 100 100 101 255 
108 111 128 0 0 0 120 121 121 255 
65 33 80 0 0 0 82 82 82 255 
118 111 134 0 0 0 129 129 131 255 
71 119 87 0 0 0 75 74 75 255 
119 111 134 0 0 0 123 123 124 255 
120 111 135 0 0 0 103 103 104 255 
90 113 112 0 0 0 130 130 130 255 
90 37 115 0 0 0 84 86 82 255 
108 112 128 0 0 0 97 97 98 255 
109 112 129 0 0 0 95 96 97 255 
63 22 78 0 0 0 124 124 125 255 
81 115 102 0 0 0 139 139 139 255 
67 33 85 0 0 0 80 82 77 255 
89 114 112 0 0 0 106 106 107 255 
82 50 103 0 0 0 109 107 107 255 
98 113 120 0 0 0 123 122 125 255 
120 112 135 0 0 0 100 100 102 255 
81 13 103 0 0 0 123 125 123 255 
120 111 136 0 0 0 89 89 89 255 
126 111 139 0 0 0 81 80 81 255 
126 75 138 0 0 0 39 40 39 255 
63 95 78 0 0 0 69 68 67 255 
94 59 117 0 0 0 142 145 144 255 
107 113 128 0 0 0 76 78 77 255 
108 113 128 0 0 0 93 95 95 255 
60 60 75 0 0 0 97 97 95 255 
120 112 136 0 0 0 73 73 74 255 
121 112 136 0 0 0 81 81 82 255 
99 114 121 0 0 0 113 113 116 255 
125 112 138 0 0 0 111 111 109 255 
63 57 81 0 0 0 125 125 124 255 
127 112 140 0 0 0 127 128 128 255 
130 112 141 0 0 0 81 82 81 255 
62 115 76 0 0 0 98 100 101 255 
82 115 104 0 0 0 79 79 80 255 
83 115 104 0 0 0 96 97 97 255 
88 115 111 0 0 0 119 119 118 255 
101 113 122 0 0 0 124 124 124 255 
121 112 137 0 0 0 91 91 90 255 
122 112 137 0 0 0 127 127 126 255 
123 112 137 0 0 0 114 114 113 255 
103 15 132 0 0 0 124 126 127 255 
131 112 141 0 0 0 85 87 86 255 
91 58 115 0 0 0 76 75 81 255 
123 61 140 0 0 0 75 75 79 255 
82 116 104 0 0 0 111 110 111 255 
83 116 104 0 0 0 104 104 106 255 
89 115 112 0 0 0 84 85 85 255 
100 114 122 0 0 0 105 104 107 255 
101 114 123 0 0 0 76 76 77 255 
121 113 136 0 0 0 97 96 98 255 
125 113 138 0 0 0 71 70 69 255 
129 112 140 0 0 0 144 144 144 255 
56 119 70 0 0 0 108 109 105 255 
57 119 70 0 0 0 102 103 100 255 
68 52 87 0 0 0 48 48 47 255 
112 49 134 0 0 0 96 97 98 255 
84 116 106 0 0 0 84 84 83 255 
103 114 124 0 0 0 109 109 108 255 
106 114 127 0 0 0 85 87 85 255 
107 114 128 0 0 0 109 111 110 255 
126 113 139 0 0 0 85 84 84 255 
128 113 140 0 0 0 98 97 98 255 
129 113 140 0 0 0 86 86 87 255 
129 113 141 0 0 0 42 42 42 255 
130 113 141 0 0 0 56 56 57 255 
57 33 70 0 0 0 110 111 113 255 
80 91 102 0 0 0 82 82 83 255 
57 120 71 0 0 0 87 88 87 255 
102 115 124 0 0 0 80 78 79 255 
105 114 127 0 0 0 63 65 63 255 
107 114 127 0 0 0 88 89 88 255 
83 117 105 0 0 0 127 127 127 255 
97 28 123 0 0 0 144 147 143 255 
84 117 107 0 0 0 63 62 62 255 
85 117 107 0 0 0 90 90 88 255 
103 115 125 0 0 0 77 76 75 255 
122 114 137 0 0 0 134 131 132 255 
124 114 138 0 0 0 56 54 55 255 
125 114 138 0 0 0 59 57 59 255 
110 87 131 0 0 0 137 138 135 255 
91 90 116 0 0 0 98 97 95 255 
86 117 109 0 0 0 99 100 96 255 
88 117 111 0 0 0 120 121 121 255 
56 121 70 0 0 0 81 81 79 255 
83 117 106 0 0 0 142 141 143 255 
102 116 124 0 0 0 122 121 122 255 
104 116 126 0 0 0 48 48 47 255 
122 115 137 0 0 0 147 143 145 255 
123 115 137 0 0 0 100 98 100 255 
88 61 112 0 0 0 105 105 108 255 
124 115 137 0 0 0 113 111 113 255 
124 115 138 0 0 0 40 38 40 255 
58 13 70 0 0 0 59 59 55 255 
104 69 129 0 0 0 75 74 78 255 
57 121 70 0 0 0 102 102 101 255 
65 115 81 0 0 0 133 132 133 255 
128 115 139 0 0 0 110 112 115 255 
121 63 139 0 0 0 141 142 146 255 
59 76 74 0 0 0 89 89 89 255 
83 87 107 0 0 0 84 83 89 255 
85 118 107 0 0 0 100 98 98 255 
86 118 109 0 0 0 62 62 60 255 
80 52 103 0 0 0 85 85 87 255 
85 119 108 0 0 0 69 67 68 255 
125 115 139 0 0 0 42 40 43 255 
73 22 93 0 0 0 145 148 140 255 
104 117 125 0 0 0 53 49 51 255 
122 116 136 0 0 0 144 142 144 255 
123 116 137 0 0 0 102 100 103 255 
125 116 138 0 0 0 45 42 46 255 
104 10 133 0 0 0 84 86 87 255 
112 93 131 0 0 0 123 124 127 255 
84 119 107 0 0 0 96 94 96 255 
86 119 108 0 0 0 67 65 66 255 
75 79 94 0 0 0 92 92 92 255 
66 110 83 0 0 0 115 116 117 255 
85 119 107 0 0 0 90 88 89 255 
102 118 124 0 0 0 100 99 100 255 
96 109 120 0 0 0 121 122 124 255 
103 118 125 0 0 0 42 40 43 255 
75 106 93 0 0 0 118 120 120 255 
104 118 126 0 0 0 65 63 67 255 
105 118 127 0 0 0 77 76 80 255 
107 118 127 0 0 0 83 84 86 255 
123 117 137 0 0 0 66 65 68 255 
125 117 138 0 0 0 95 93 98 255 
106 118 127 0 0 0 82 81 85 255 
102 98 125 0 0 0 82 82 81 255 
116 46 136 0 0 0 108 107 113 255 
100 85 123 0 0 0 111 111 114 255 
101 119 123 0 0 0 107 107 107 255 
108 118 129 0 0 0 136 137 137 255 
58 118 71 0 0 0 117 118 116 255 
72 40 93 0 0 0 87 86 85 255 
91 58 113 0 0 0 113 112 116 255 
61 112 76 0 0 0 135 135 135 255 
106 119 127 0 0 0 126 128 131 255 
107 119 128 0 0 0 113 113 116 255 
121 118 137 0 0 0 98 99 99 255 
71 71 89 0 0 0 100 99 102 255 
110 54 132 0 0 0 102 103 103 255 
109 119 129 0 0 0 104 104 106 255 
119 119 136 0 0 0 132 132 132 255 
120 119 136 0 0 0 95 95 96 255 
128 113 141 0 0 0 103 104 106 255 
113 72 133 0 0 0 127 129 131 255 
92 57 114 0 0 0 55 53 57 255 
97 108 121 0 0 0 109 110 111 255 
62 31 75 0 0 0 73 73 75 255 
78 45 98 0 0 0 141 141 145 255 
68 6 85 0 0 0 73 72 74 255 
99 30 125 0 0 0 136 138 136 255 
57 16 68 0 0 0 84 84 88 255 
66 19 84 0 0 0 108 109 108 255 
108 21 133 0 0 0 106 106 108 255 
75 24 94 0 0 0 111 111 112 255 
83 65 106 0 0 0 150 152 148 255 
64 17 77 0 0 0 98 98 97 255 
109 113 129 0 0 0 136 136 138 255 
99 96 123 0 0 0 116 116 116 255 
119 63 136 0 0 0 59 57 60 255 
63 60 81 0 0 0 122 123 122 255 
94 89 119 0 0 0 141 141 138 255 
57 31 71 0 0 0 64 64 66 255 
64 95 79 0 0 0 64 64 63 255 
113 49 136 0 0 0 135 136 138 255 
91 95 113 0 0 0 106 105 105 255 
97 63 121 0 0 0 95 94 97 255 
94 92 117 0 0 0 48 47 49 255 
120 81 136 0 0 0 88 85 89 255 
86 65 109 0 0 0 134 136 137 255 
89 18 115 0 0 0 118 118 119 255 
59 83 74 0 0 0 133 133 134 255 
105 79 127 0 0 0 105 105 107 255 
71 73 91 0 0 0 137 137 138 255 
63 33 79 0 0 0 71 70 73 255 
72 65 91 0 0 0 112 113 114 255 
110 74 131 0 0 0 126 125 129 255 
87 88 111 0 0 0 119 119 122 255 
97 96 121 0 0 0 142 142 144 255 
103 62 127 0 0 0 118 120 122 255 
96 51 120 0 0 0 148 148 151 255 
107 76 128 0 0 0 93 93 94 255 
77 78 96 0 0 0 71 69 72 255 
86 86 110 0 0 0 73 74 75 255 
73 65 91 0 0 0 116 117 117 255 
70 29 87 0 0 0 131 131 130 255 
65 33 81 0 0 0 104 104 102 255 
95 61 119 0 0 0 84 85 86 255 
102 42 127 0 0 0 97 97 98 255 
79 78 99 0 0 0 109 109 112 255 
105 80 127 0 0 0 127 130 130 255 
111 51 135 0 0 0 131 132 133 255 
71 87 90 0 0 0 84 84 85 255 
57 43 71 0 0 0 114 114 115 255 
99 102 123 0 0 0 123 123 125 255 
126 77 139 0 0 0 146 148 146 255 
102 41 128 0 0 0 103 104 105 255 
86 82 109 0 0 0 81 81 80 255 
96 69 120 0 0 0 125 125 126 255 
84 86 105 0 0 0 88 86 88 255 
71 39 91 0 0 0 97 98 97 255 
64 96 77 0 0 0 57 54 56 255 
93 41 117 0 0 0 98 99 100 255 
87 20 110 0 0 0 72 69 72 255 
74 76 94 0 0 0 114 114 116 255 
99 45 123 0 0 0 139 140 136 255 
76 42 97 0 0 0 127 128 129 255 
80 46 101 0 0 0 97 98 99 255 
71 7 89 0 0 0 118 122 110 255 
63 96 76 0 0 0 143 141 143 255 
99 95 122 0 0 0 121 121 120 255 
107 98 128 0 0 0 131 131 133 255 
92 95 115 0 0 0 129 128 130 255 
83 115 103 0 0 0 91 91 94 255 
79 91 101 0 0 0 138 137 136 255 
110 55 131 0 0 0 81 80 84 255 
68 36 85 0 0 0 51 50 54 255 
59 31 73 0 0 0 135 133 140 255 
121 39 138 0 0 0 56 56 54 255 
89 38 112 0 0 0 78 75 77 255 
107 77 129 0 0 0 150 151 152 255 
97 94 120 0 0 0 94 94 95 255 
56 43 70 0 0 0 102 102 105 255 
56 12 69 0 0 0 82 82 77 255 
81 87 104 0 0 0 145 144 146 255 
65 73 84 0 0 0 56 57 57 255 
64 5 78 0 0 0 69 67 75 255 
74 82 92 0 0 0 91 91 92 255 
77 10 96 0 0 0 112 113 111 255 
56 35 69 0 0 0 127 128 129 255 
79 92 100 0 0 0 108 109 106 255 
88 102 111 0 0 0 145 147 146 255 
77 35 100 0 0 0 103 104 105 255 
81 82 104 0 0 0 68 67 68 255 
61 114 75 0 0 0 134 135 134 255 
84 28 106 0 0 0 123 123 126 255 
73 118 91 0 0 0 83 84 83 255 
80 62 101 0 0 0 110 110 112 255 
56 88 70 0 0 0 83 83 83 255 
71 40 91 0 0 0 111 111 113 255 
88 37 114 0 0 0 104 105 100 255 
69 70 87 0 0 0 52 51 54 255 
102 100 123 0 0 0 117 115 117 255 
126 113 138 0 0 0 75 73 74 255 
89 60 111 0 0 0 105 106 109 255 
59 116 74 0 0 0 79 79 80 255 
94 43 118 0 0 0 83 82 85 255 
67 32 84 0 0 0 139 140 136 255 
94 93 117 0 0 0 111 110 115 255 
56 29 70 0 0 0 103 102 103 255 
72 7 88 0 0 0 61 59 55 255 
73 45 91 0 0 0 136 137 136 255 
108 73 129 0 0 0 123 123 124 255 
74 90 93 0 0 0 86 87 88 255 
85 103 109 0 0 0 129 128 133 255 
83 68 106 0 0 0 42 40 43 255 
56 87 70 0 0 0 65 67 63 255 
76 93 96 0 0 0 103 101 103 255 
128 97 141 0 0 0 132 133 136 255 
76 40 98 0 0 0 137 138 137 255 
111 109 129 0 0 0 110 109 109 255 
86 86 109 0 0 0 77 77 80 255 
80 14 100 0 0 0 71 69 70 255 
67 35 84 0 0 0 64 64 63 255 
93 92 116 0 0 0 56 55 57 255 
103 40 128 0 0 0 128 129 131 255 
112 26 138 0 0 0 134 133 139 255 
69 69 88 0 0 0 72 72 71 255 
77 9 94 0 0 0 144 146 142 255 
60 63 75 0 0 0 112 112 112 255 
96 27 123 0 0 0 143 147 143 255 
60 108 75 0 0 0 115 117 117 255 
67 116 84 0 0 0 67 67 68 255 
110 113 129 0 0 0 144 145 148 255 
56 33 69 0 0 0 89 89 90 255 
105 6 133 0 0 0 114 113 117 255 
62 80 78 0 0 0 123 123 128 255 
115 58 135 0 0 0 119 121 122 255 
124 117 137 0 0 0 93 93 96 255 
85 85 107 0 0 0 69 68 68 255 
83 32 105 0 0 0 147 150 148 255 
105 69 129 0 0 0 90 89 92 255 
72 74 92 0 0 0 127 127 127 255 
78 73 101 0 0 0 106 106 106 255 
79 111 98 0 0 0 54 53 56 255 
94 50 119 0 0 0 142 143 144 255 
86 53 110 0 0 0 93 94 95 255 
63 63 78 0 0 0 78 78 82 255 
114 72 133 0 0 0 143 145 148 255 
94 91 117 0 0 0 63 63 62 255 
100 31 127 0 0 0 124 125 123 255 
66 65 82 0 0 0 128 131 128 255 
61 46 75 0 0 0 138 136 141 255 
87 70 110 0 0 0 109 110 110 255 
75 100 93 0 0 0 144 145 147 255 
103 81 126 0 0 0 104 105 104 255 
58 15 70 0 0 0 144 143 149 255 
60 14 72 0 0 0 127 128 129 255 
125 116 137 0 0 0 54 51 53 255 
107 4 134 0 0 0 55 52 57 255 
57 88 70 0 0 0 93 94 93 255 
111 25 137 0 0 0 38 35 41 255 
57 49 71 0 0 0 91 91 90 255 
79 35 102 0 0 0 115 115 119 255 
96 94 120 0 0 0 72 73 74 255 
97 66 121 0 0 0 132 131 132 255 
117 59 137 0 0 0 149 150 150 255 
115 88 134 0 0 0 87 88 89 255 
81 89 105 0 0 0 91 92 94 255 
119 84 136 0 0 0 112 113 115 255 
121 98 136 0 0 0 139 138 140 255 
74 83 92 0 0 0 111 111 113 255 
72 28 90 0 0 0 127 128 130 255 
102 64 125 0 0 0 113 116 113 255 
71 39 90 0 0 0 76 77 78 255 
132 113 142 0 0 0 111 112 114 255 
66 20 84 0 0 0 70 69 72 255 
64 95 81 0 0 0 106 106 108 255 
82 82 104 0 0 0 90 90 90 255 
66 37 82 0 0 0 56 55 57 255 
89 58 112 0 0 0 105 104 106 255 
72 119 89 0 0 0 50 49 48 255 
56 57 72 0 0 0 142 143 142 255 
80 108 102 0 0 0 92 93 92 255 
103 115 124 0 0 0 79 76 78 255 
99 106 122 0 0 0 70 71 70 255 
75 99 92 0 0 0 72 73 73 255 
118 110 133 0 0 0 118 118 122 255 
80 92 102 0 0 0 114 114 116 255 
120 95 135 0 0 0 143 143 147 255 
66 91 84 0 0 0 87 88 88 255 
76 44 96 0 0 0 146 146 151 255 
74 116 92 0 0 0 102 103 102 255 
117 91 134 0 0 0 139 141 142 255 
81 88 104 0 0 0 100 100 102 255 
70 69 88 0 0 0 98 99 98 255 
66 81 81 0 0 0 85 86 87 255 
129 96 141 0 0 0 127 129 130 255 
74 101 91 0 0 0 117 119 119 255 
80 80 101 0 0 0 78 77 79 255 
77 19 98 0 0 0 120 120 122 255 
64 112 79 0 0 0 55 54 56 255 
75 115 93 0 0 0 103 102 102 255 
90 78 113 0 0 0 112 112 114 255 
89 116 112 0 0 0 113 114 116 255 
98 63 123 0 0 0 87 87 86 255 
66 5 80 0 0 0 122 121 127 255 
97 95 121 0 0 0 84 83 85 255 
88 38 111 0 0 0 118 114 118 255 
59 9 73 0 0 0 105 106 106 255 
60 9 73 0 0 0 96 96 97 255 
68 7 86 0 0 0 75 72 76 255 
63 61 77 0 0 0 73 73 72 255 
59 10 73 0 0 0 89 89 90 255 
96 2 122 0 0 0 98 99 99 255 
64 32 78 0 0 0 110 111 111 255 
58 11 71 0 0 0 115 117 112 255 
58 11 72 0 0 0 83 84 82 255 
59 11 72 0 0 0 83 84 84 255 
95 3 122 0 0 0 92 93 94 255 
63 59 81 0 0 0 92 93 93 255 
58 11 70 0 0 0 88 91 85 255 
89 4 113 0 0 0 141 141 142 255 
96 3 122 0 0 0 71 71 72 255 
110 0 138 0 0 0 136 136 138 255 
104 60 127 0 0 0 88 89 91 255 
56 12 67 0 0 0 142 144 135 255 
58 12 70 0 0 0 79 81 75 255 
103 38 127 0 0 0 115 115 117 255 
95 4 122 0 0 0 77 78 80 255 
70 38 90 0 0 0 94 95 95 255 
111 2 139 0 0 0 94 94 99 255 
58 13 69 0 0 0 62 62 60 255 
59 13 70 0 0 0 105 106 106 255 
95 5 122 0 0 0 94 94 97 255 
91 39 114 0 0 0 71 70 73 255 
58 14 69 0 0 0 46 45 48 255 
59 14 70 0 0 0 88 89 90 255 
95 5 121 0 0 0 80 80 82 255 
57 14 69 0 0 0 44 40 48 255 
90 14 117 0 0 0 127 128 131 255 
76 10 95 0 0 0 75 76 77 255 
95 6 121 0 0 0 87 88 89 255 
103 4 133 0 0 0 145 142 147 255 
92 56 115 0 0 0 74 74 74 255 
108 3 136 0 0 0 108 109 109 255 
67 70 84 0 0 0 128 128 127 255 
60 110 76 0 0 0 78 79 78 255 
58 14 71 0 0 0 61 60 65 255 
59 14 72 0 0 0 98 99 100 255 
71 12 86 0 0 0 124 125 127 255 
68 20 86 0 0 0 118 119 117 255 
114 25 139 0 0 0 140 143 148 255 
91 8 115 0 0 0 132 130 135 255 
95 7 120 0 0 0 136 138 137 255 
108 5 135 0 0 0 77 77 81 255 
118 106 135 0 0 0 140 141 142 255 
62 15 74 0 0 0 142 145 142 255 
91 94 114 0 0 0 99 99 99 255 
89 98 112 0 0 0 109 110 112 255 
64 18 77 0 0 0 95 93 97 255 
101 44 125 0 0 0 129 130 130 255 
89 60 112 0 0 0 109 110 112 255 
80 13 100 0 0 0 66 65 65 255 
104 8 133 0 0 0 107 107 110 255 
105 8 134 0 0 0 73 73 76 255 
87 55 111 0 0 0 128 128 130 255 
67 17 82 0 0 0 74 76 73 255 
77 14 99 0 0 0 138 137 138 255 
78 14 100 0 0 0 53 53 55 255 
80 93 101 0 0 0 148 148 151 255 
101 20 127 0 0 0 126 127 130 255 
57 27 69 0 0 0 146 149 145 255 
105 9 133 0 0 0 91 92 95 255 
76 19 96 0 0 0 127 128 128 255 
103 10 132 0 0 0 143 143 144 255 
104 10 132 0 0 0 113 113 115 255 
77 16 98 0 0 0 128 128 128 255 
78 16 100 0 0 0 93 92 96 255 
59 28 72 0 0 0 67 67 65 255 
99 47 122 0 0 0 68 66 66 255 
66 19 82 0 0 0 75 75 75 255 
77 17 98 0 0 0 96 97 97 255 
64 20 81 0 0 0 53 50 54 255 
104 3 132 0 0 0 79 76 83 255 
84 16 106 0 0 0 119 120 120 255 
76 19 98 0 0 0 115 115 117 255 
76 18 97 0 0 0 116 116 117 255 
77 18 98 0 0 0 91 91 92 255 
103 13 132 0 0 0 79 81 79 255 
104 13 133 0 0 0 121 123 123 255 
95 87 121 0 0 0 92 93 93 255 
103 14 130 0 0 0 106 108 104 255 
103 14 131 0 0 0 91 92 90 255 
106 116 128 0 0 0 147 150 147 255 
77 18 97 0 0 0 138 139 139 255 
89 17 114 0 0 0 108 110 108 255 
101 15 130 0 0 0 106 107 99 255 
119 38 136 0 0 0 146 147 146 255 
87 82 110 0 0 0 106 107 108 255 
69 22 89 0 0 0 105 106 106 255 
69 23 89 0 0 0 79 79 81 255 
70 22 90 0 0 0 108 109 107 255 
103 16 130 0 0 0 92 93 94 255 
91 57 115 0 0 0 53 51 54 255 
55 27 69 0 0 0 103 104 102 255 
68 70 85 0 0 0 81 80 81 255 
59 27 74 0 0 0 108 110 106 255 
59 27 75 0 0 0 73 74 72 255 
60 27 76 0 0 0 96 96 97 255 
105 18 131 0 0 0 119 121 121 255 
55 28 70 0 0 0 70 70 70 255 
58 27 73 0 0 0 149 151 145 255 
56 28 71 0 0 0 62 62 60 255 
59 28 73 0 0 0 72 74 68 255 
127 91 139 0 0 0 107 109 105 255 
60 28 75 0 0 0 118 120 119 255 
57 29 71 0 0 0 62 62 63 255 
73 75 94 0 0 0 92 92 94 255 
60 28 74 0 0 0 95 97 93 255 
75 61 96 0 0 0 134 133 139 255 
58 29 72 0 0 0 53 53 54 255 
59 29 73 0 0 0 56 56 54 255 
85 23 109 0 0 0 131 131 131 255 
78 74 101 0 0 0 91 92 92 255 
57 30 71 0 0 0 111 110 113 255 
59 30 73 0 0 0 79 77 82 255 
60 30 72 0 0 0 63 62 64 255 
60 29 73 0 0 0 80 80 78 255 
64 111 80 0 0 0 63 62 61 255 
60 30 73 0 0 0 72 71 74 255 
60 30 74 0 0 0 85 85 88 255 
84 24 108 0 0 0 148 149 148 255 
96 67 122 0 0 0 73 73 75 255 
58 31 70 0 0 0 145 144 146 255 
61 30 74 0 0 0 85 84 87 255 
58 31 71 0 0 0 85 84 88 255 
60 31 74 0 0 0 105 104 109 255 
60 30 75 0 0 0 72 73 75 255 
61 30 75 0 0 0 113 113 115 255 
60 31 75 0 0 0 62 62 65 255 
61 31 75 0 0 0 81 80 84 255 
94 71 120 0 0 0 88 88 89 255 
77 28 96 0 0 0 113 111 116 255 
85 26 108 0 0 0 102 103 103 255 
56 32 69 0 0 0 127 128 128 255 
57 32 69 0 0 0 123 124 123 255 
58 32 71 0 0 0 92 93 96 255 
61 31 76 0 0 0 68 68 70 255 
83 26 106 0 0 0 133 134 133 255 
61 32 75 0 0 0 134 133 137 255 
62 31 77 0 0 0 110 111 111 255 
69 30 88 0 0 0 73 73 73 255 
70 30 88 0 0 0 103 103 105 255 
84 27 107 0 0 0 94 94 96 255 
70 105 86 0 0 0 73 72 73 255 
83 70 105 0 0 0 139 138 145 255 
62 32 76 0 0 0 97 97 100 255 
63 32 77 0 0 0 76 76 78 255 
63 32 78 0 0 0 87 88 88 255 
69 30 86 0 0 0 139 140 138 255 
92 25 118 0 0 0 59 59 60 255 
69 31 86 0 0 0 111 112 110 255 
83 28 107 0 0 0 133 134 135 255 
70 67 88 0 0 0 81 83 81 255 
64 32 79 0 0 0 120 121 120 255 
68 31 86 0 0 0 101 101 100 255 
102 98 126 0 0 0 73 71 69 255 
69 31 87 0 0 0 88 89 89 255 
55 51 69 0 0 0 118 119 117 255 
92 59 117 0 0 0 63 64 66 255 
55 34 69 0 0 0 85 86 87 255 
63 33 77 0 0 0 128 127 130 255 
68 32 86 0 0 0 85 86 86 255 
79 45 100 0 0 0 89 90 91 255 
64 33 80 0 0 0 65 65 66 255 
67 33 84 0 0 0 90 93 86 255 
91 56 113 0 0 0 64 62 63 255 
64 34 79 0 0 0 135 134 138 255 
65 33 82 0 0 0 88 87 84 255 
68 33 85 0 0 0 93 95 91 255 
68 33 86 0 0 0 126 127 127 255 
73 8 88 0 0 0 50 47 46 255 
65 34 80 0 0 0 113 112 116 255 
65 34 81 0 0 0 87 86 88 255 
126 112 138 0 0 0 109 109 109 255 
65 34 82 0 0 0 89 88 88 255 
66 34 82 0 0 0 83 83 81 255 
64 93 81 0 0 0 114 116 114 255 
66 33 84 0 0 0 117 118 112 255 
66 34 83 0 0 0 65 65 61 255 
67 34 84 0 0 0 70 71 67 255 
63 59 80 0 0 0 99 100 98 255 
96 28 122 0 0 0 103 104 101 255 
88 57 112 0 0 0 148 145 149 255 
101 43 125 0 0 0 137 138 137 255 
65 35 82 0 0 0 96 95 96 255 
66 35 82 0 0 0 84 84 84 255 
62 61 78 0 0 0 66 67 64 255 
65 36 82 0 0 0 86 86 87 255 
66 36 82 0 0 0 69 69 70 255 
67 36 83 0 0 0 54 52 55 255 
67 35 85 0 0 0 93 93 93 255 
68 35 85 0 0 0 102 103 104 255 
81 32 105 0 0 0 56 54 58 255 
75 79 93 0 0 0 151 152 151 255 
65 36 81 0 0 0 143 142 143 255 
85 25 109 0 0 0 106 106 107 255 
65 112 80 0 0 0 94 94 98 255 
68 35 86 0 0 0 122 124 124 255 
111 0 138 0 0 0 149 149 148 255 
65 37 82 0 0 0 63 62 65 255 
107 21 132 0 0 0 119 118 123 255 
67 36 84 0 0 0 62 60 65 255 
110 3 139 0 0 0 124 125 130 255 
66 37 83 0 0 0 64 63 68 255 
66 37 84 0 0 0 95 93 100 255 
68 37 86 0 0 0 142 141 146 255 
68 37 87 0 0 0 120 120 123 255 
92 32 119 0 0 0 70 70 73 255 
67 66 84 0 0 0 128 130 127 255 
117 42 138 0 0 0 119 119 122 255 
82 83 105 0 0 0 77 76 77 255 
64 38 81 0 0 0 86 85 87 255 
65 38 82 0 0 0 106 105 109 255 
69 37 88 0 0 0 89 90 92 255 
77 35 99 0 0 0 150 151 152 255 
83 84 106 0 0 0 103 102 101 255 
101 42 125 0 0 0 138 138 140 255 
63 38 80 0 0 0 128 128 127 255 
64 38 82 0 0 0 115 114 118 255 
70 37 89 0 0 0 105 106 106 255 
63 39 80 0 0 0 92 93 92 255 
63 39 81 0 0 0 73 73 73 255 
64 39 81 0 0 0 113 113 115 255 
70 37 90 0 0 0 118 120 119 255 
69 38 89 0 0 0 123 123 125 255 
105 77 128 0 0 0 64 64 65 255 
78 46 99 0 0 0 145 144 148 255 
70 22 88 0 0 0 98 99 99 255 
93 59 117 0 0 0 101 102 103 255 
70 39 89 0 0 0 134 134 136 255 
70 39 90 0 0 0 96 96 98 255 
77 37 100 0 0 0 97 98 99 255 
76 38 98 0 0 0 110 110 109 255 
77 38 99 0 0 0 97 98 98 255 
101 113 123 0 0 0 126 126 127 255 
108 75 130 0 0 0 111 111 113 255 
105 17 130 0 0 0 145 146 146 255 
76 38 99 0 0 0 85 86 86 255 
76 39 97 0 0 0 129 132 129 255 
91 36 116 0 0 0 81 81 82 255 
107 85 128 0 0 0 136 138 138 255 
71 40 92 0 0 0 79 78 80 255 
72 40 92 0 0 0 85 85 85 255 
92 36 116 0 0 0 125 127 128 255 
106 34 131 0 0 0 89 91 90 255 
73 40 93 0 0 0 101 101 98 255 
75 39 98 0 0 0 69 70 68 255 
94 41 117 0 0 0 131 132 133 255 
89 37 114 0 0 0 95 96 90 255 
90 37 116 0 0 0 86 88 86 255 
71 41 92 0 0 0 125 125 127 255 
71 41 91 0 0 0 125 124 127 255 
72 41 93 0 0 0 87 86 88 255 
70 70 89 0 0 0 84 84 85 255 
75 40 95 0 0 0 81 82 77 255 
76 40 97 0 0 0 111 112 112 255 
107 35 132 0 0 0 88 90 86 255 
88 5 111 0 0 0 136 135 140 255 
72 41 92 0 0 0 145 143 146 255 
74 41 93 0 0 0 79 77 78 255 
102 19 127 0 0 0 95 96 99 255 
75 41 94 0 0 0 67 66 66 255 
75 41 95 0 0 0 61 60 58 255 
90 38 115 0 0 0 91 92 90 255 
128 109 140 0 0 0 53 53 52 255 
76 41 96 0 0 0 102 102 102 255 
76 41 97 0 0 0 123 124 122 255 
73 43 92 0 0 0 133 133 134 255 
91 38 114 0 0 0 72 72 70 255 
81 107 103 0 0 0 90 90 90 255 
62 44 75 0 0 0 94 93 90 255 
72 42 93 0 0 0 129 128 131 255 
112 41 134 0 0 0 122 122 127 255 
76 42 95 0 0 0 67 66 69 255 
90 39 112 0 0 0 72 68 73 255 
103 12 131 0 0 0 132 132 132 255 
76 42 96 0 0 0 82 81 85 255 
90 39 114 0 0 0 63 61 66 255 
91 39 115 0 0 0 118 117 119 255 
74 43 93 0 0 0 103 102 105 255 
121 111 135 0 0 0 123 124 124 255 
75 42 95 0 0 0 61 59 64 255 
75 42 96 0 0 0 61 60 65 255 
90 40 114 0 0 0 111 109 116 255 
90 40 115 0 0 0 83 82 87 255 
87 23 111 0 0 0 102 102 106 255 
91 40 115 0 0 0 82 81 85 255 
122 38 139 0 0 0 124 125 122 255 
109 37 133 0 0 0 125 125 127 255 
101 33 128 0 0 0 115 115 116 255 
76 43 96 0 0 0 91 90 96 255 
77 42 97 0 0 0 121 122 125 255 
73 43 93 0 0 0 107 106 108 255 
76 43 97 0 0 0 76 75 80 255 
89 41 112 0 0 0 90 90 94 255 
92 40 116 0 0 0 95 95 97 255 
93 40 116 0 0 0 118 120 119 255 
103 39 127 0 0 0 96 96 97 255 
62 46 78 0 0 0 75 73 76 255 
73 44 92 0 0 0 105 106 106 255 
73 44 93 0 0 0 68 68 69 255 
77 43 98 0 0 0 103 104 106 255 
95 43 119 0 0 0 110 110 110 255 
91 41 115 0 0 0 107 107 110 255 
92 41 116 0 0 0 84 84 86 255 
63 114 77 0 0 0 77 76 79 255 
76 44 97 0 0 0 143 142 147 255 
77 44 98 0 0 0 86 85 89 255 
124 112 137 0 0 0 134 134 133 255 
99 105 122 0 0 0 98 100 101 255 
73 45 92 0 0 0 79 80 81 255 
73 45 93 0 0 0 108 108 111 255 
65 93 81 0 0 0 108 108 107 255 
78 44 99 0 0 0 95 95 97 255 
92 93 116 0 0 0 55 54 59 255 
92 42 116 0 0 0 125 125 128 255 
59 61 74 0 0 0 129 129 130 255 
72 46 91 0 0 0 83 83 83 255 
73 46 92 0 0 0 115 115 117 255 
56 49 71 0 0 0 116 116 116 255 
58 45 72 0 0 0 149 147 151 255 
72 46 92 0 0 0 104 104 104 255 
78 45 100 0 0 0 64 65 66 255 
86 44 108 0 0 0 118 119 119 255 
62 110 78 0 0 0 129 131 128 255 
62 81 77 0 0 0 127 127 130 255 
122 38 138 0 0 0 123 125 123 255 
86 104 108 0 0 0 64 62 69 255 
79 45 101 0 0 0 118 120 120 255 
87 44 109 0 0 0 134 135 136 255 
93 43 117 0 0 0 136 135 139 255 
95 43 118 0 0 0 98 97 100 255 
64 95 78 0 0 0 70 68 68 255 
56 50 71 0 0 0 83 83 83 255 
57 50 71 0 0 0 97 98 99 255 
79 46 100 0 0 0 103 103 106 255 
122 41 137 0 0 0 150 152 152 255 
59 59 74 0 0 0 107 107 106 255 
104 100 127 0 0 0 69 70 69 255 
94 44 118 0 0 0 125 124 129 255 
56 51 70 0 0 0 91 92 92 255 
80 46 102 0 0 0 88 88 89 255 
81 46 102 0 0 0 127 128 127 255 
94 44 119 0 0 0 105 104 107 255 
95 44 119 0 0 0 81 81 84 255 
96 44 120 0 0 0 91 92 92 255 
55 51 70 0 0 0 70 71 71 255 
67 20 83 0 0 0 76 77 75 255 
56 51 71 0 0 0 112 112 114 255 
80 47 102 0 0 0 91 90 92 255 
81 47 103 0 0 0 76 76 76 255 
74 101 92 0 0 0 140 140 142 255 
81 106 103 0 0 0 121 121 121 255 
55 52 69 0 0 0 81 82 81 255 
84 46 106 0 0 0 118 119 116 255 
115 41 136 0 0 0 105 105 103 255 
90 13 117 0 0 0 67 68 71 255 
95 45 119 0 0 0 130 128 131 255 
96 45 120 0 0 0 96 95 98 255 
96 44 121 0 0 0 88 89 89 255 
104 67 128 0 0 0 121 123 122 255 
97 44 121 0 0 0 126 127 125 255 
69 49 88 0 0 0 65 67 66 255 
81 47 104 0 0 0 67 66 65 255 
95 45 120 0 0 0 111 110 114 255 
81 48 102 0 0 0 146 145 147 255 
81 48 103 0 0 0 116 114 116 255 
81 48 104 0 0 0 85 83 84 255 
68 51 85 0 0 0 65 65 62 255 
82 49 104 0 0 0 97 95 97 255 
84 64 107 0 0 0 137 138 136 255 
82 49 105 0 0 0 55 55 55 255 
65 95 79 0 0 0 76 76 75 255 
83 49 105 0 0 0 56 56 56 255 
96 47 120 0 0 0 149 148 148 255 
116 67 136 0 0 0 96 96 98 255 
96 47 121 0 0 0 141 141 140 255 
80 50 103 0 0 0 142 141 142 255 
81 50 104 0 0 0 84 81 82 255 
83 50 105 0 0 0 39 38 41 255 
100 47 123 0 0 0 102 102 103 255 
83 50 106 0 0 0 51 50 53 255 
84 50 107 0 0 0 84 84 85 255 
81 51 103 0 0 0 93 92 93 255 
83 50 107 0 0 0 68 68 71 255 
100 48 123 0 0 0 128 128 130 255 
82 51 104 0 0 0 59 57 62 255 
83 51 106 0 0 0 118 116 122 255 
85 50 108 0 0 0 120 123 122 255 
98 48 123 0 0 0 48 46 51 255 
68 54 86 0 0 0 75 73 80 255 
79 52 102 0 0 0 102 102 103 255 
79 51 103 0 0 0 89 89 90 255 
82 51 106 0 0 0 101 98 106 255 
84 51 107 0 0 0 106 105 109 255 
85 51 108 0 0 0 87 88 89 255 
98 49 123 0 0 0 77 77 83 255 
91 58 114 0 0 0 72 70 76 255 
55 56 70 0 0 0 104 104 105 255 
86 51 109 0 0 0 112 113 113 255 
95 49 120 0 0 0 137 138 138 255 
55 57 69 0 0 0 103 103 104 255 
55 57 70 0 0 0 97 97 98 255 
56 57 71 0 0 0 99 100 101 255 
85 52 108 0 0 0 106 106 109 255 
78 53 101 0 0 0 119 120 119 255 
79 53 102 0 0 0 91 92 93 255 
85 52 109 0 0 0 97 97 99 255 
94 51 120 0 0 0 81 82 83 255 
95 51 121 0 0 0 128 129 131 255 
56 58 72 0 0 0 99 99 100 255 
96 86 121 0 0 0 121 121 122 255 
86 53 109 0 0 0 133 133 135 255 
64 57 82 0 0 0 85 86 86 255 
77 54 100 0 0 0 140 140 140 255 
87 53 110 0 0 0 100 101 102 255 
94 52 120 0 0 0 89 90 91 255 
57 58 73 0 0 0 134 135 134 255 
77 55 100 0 0 0 105 105 104 255 
57 59 72 0 0 0 120 120 121 255 
57 59 73 0 0 0 85 85 85 255 
63 58 81 0 0 0 98 99 98 255 
76 77 95 0 0 0 94 92 94 255 
87 54 110 0 0 0 110 110 113 255 
86 54 110 0 0 0 144 144 147 255 
63 58 80 0 0 0 107 108 107 255 
65 109 82 0 0 0 118 119 117 255 
63 58 82 0 0 0 94 95 94 255 
93 53 118 0 0 0 104 105 104 255 
109 52 132 0 0 0 101 103 99 255 
58 60 73 0 0 0 126 126 127 255 
58 60 74 0 0 0 87 87 87 255 
62 59 80 0 0 0 93 94 91 255 
119 61 137 0 0 0 66 66 66 255 
71 71 91 0 0 0 86 87 87 255 
88 55 112 0 0 0 90 90 90 255 
92 54 117 0 0 0 128 129 127 255 
93 54 118 0 0 0 100 101 100 255 
107 52 130 0 0 0 111 112 108 255 
61 60 77 0 0 0 112 114 107 255 
62 60 77 0 0 0 86 87 82 255 
62 60 79 0 0 0 96 97 93 255 
62 59 79 0 0 0 131 132 129 255 
90 55 114 0 0 0 108 109 104 255 
92 54 118 0 0 0 92 93 92 255 
58 61 74 0 0 0 131 131 131 255 
62 60 78 0 0 0 96 97 93 255 
61 60 78 0 0 0 116 118 111 255 
62 60 80 0 0 0 72 73 71 255 
63 60 80 0 0 0 103 103 103 255 
76 58 97 0 0 0 64 65 62 255 
77 57 99 0 0 0 107 108 108 255 
88 56 112 0 0 0 107 105 107 255 
113 43 135 0 0 0 137 134 136 255 
89 56 113 0 0 0 48 46 46 255 
92 55 117 0 0 0 82 82 82 255 
92 55 118 0 0 0 92 92 93 255 
63 96 78 0 0 0 46 44 47 255 
59 61 75 0 0 0 88 87 88 255 
60 61 75 0 0 0 76 75 75 255 
61 61 76 0 0 0 66 65 61 255 
76 58 95 0 0 0 62 61 60 255 
94 70 119 0 0 0 144 144 144 255 
77 58 98 0 0 0 111 112 112 255 
77 58 99 0 0 0 101 103 102 255 
90 56 113 0 0 0 53 51 52 255 
61 61 75 0 0 0 52 52 51 255 
81 81 102 0 0 0 84 85 85 255 
72 47 90 0 0 0 63 63 62 255 
77 58 96 0 0 0 67 67 65 255 
77 58 97 0 0 0 65 66 66 255 
63 64 80 0 0 0 77 77 79 255 
57 74 71 0 0 0 128 128 130 255 
94 31 121 0 0 0 128 126 133 255 
59 62 74 0 0 0 145 145 145 255 
61 62 75 0 0 0 61 60 61 255 
62 62 76 0 0 0 52 51 53 255 
63 61 76 0 0 0 101 101 102 255 
77 59 96 0 0 0 56 55 57 255 
77 59 97 0 0 0 83 83 85 255 
89 57 112 0 0 0 118 115 118 255 
63 62 77 0 0 0 66 65 67 255 
90 57 112 0 0 0 117 115 117 255 
92 57 115 0 0 0 73 72 76 255 
60 62 76 0 0 0 74 73 76 255 
61 62 77 0 0 0 38 36 41 255 
68 14 85 0 0 0 75 74 74 255 
62 62 78 0 0 0 52 50 54 255 
63 62 78 0 0 0 78 77 79 255 
90 57 114 0 0 0 35 34 39 255 
69 69 86 0 0 0 59 60 60 255 
102 102 124 0 0 0 88 87 90 255 
61 63 76 0 0 0 74 73 77 255 
115 75 133 0 0 0 106 107 109 255 
87 100 109 0 0 0 64 65 63 255 
61 63 77 0 0 0 93 92 97 255 
62 63 77 0 0 0 107 106 111 255 
90 58 114 0 0 0 73 72 76 255 
60 63 76 0 0 0 64 63 66 255 
62 63 78 0 0 0 93 93 97 255 
76 92 97 0 0 0 95 95 93 255 
91 58 116 0 0 0 73 74 78 255 
92 58 116 0 0 0 93 94 98 255 
59 64 74 0 0 0 118 119 116 255 
60 64 75 0 0 0 74 74 75 255 
60 64 76 0 0 0 98 98 100 255 
88 59 111 0 0 0 128 128 128 255 
90 59 113 0 0 0 94 94 97 255 
59 64 73 0 0 0 150 151 150 255 
63 64 79 0 0 0 97 97 101 255 
74 62 93 0 0 0 70 71 71 255 
91 59 115 0 0 0 108 109 113 255 
92 59 116 0 0 0 91 92 95 255 
58 65 73 0 0 0 114 115 114 255 
59 65 75 0 0 0 111 111 112 255 
64 64 80 0 0 0 96 96 97 255 
88 60 111 0 0 0 84 85 86 255 
88 60 112 0 0 0 59 59 61 255 
124 56 140 0 0 0 115 117 112 255 
87 60 111 0 0 0 110 111 112 255 
92 60 116 0 0 0 146 145 150 255 
63 65 79 0 0 0 144 144 147 255 
64 65 80 0 0 0 114 114 116 255 
69 120 87 0 0 0 129 128 128 255 
64 65 81 0 0 0 85 85 86 255 
65 64 81 0 0 0 121 123 121 255 
87 61 110 0 0 0 96 96 98 255 
88 61 111 0 0 0 101 101 104 255 
93 60 117 0 0 0 85 85 88 255 
94 60 118 0 0 0 94 95 95 255 
65 65 81 0 0 0 86 87 86 255 
87 61 109 0 0 0 129 130 130 255 
111 72 131 0 0 0 46 44 47 255 
114 58 134 0 0 0 119 120 121 255 
94 60 119 0 0 0 106 107 106 255 
95 60 119 0 0 0 120 121 120 255 
113 59 134 0 0 0 124 123 126 255 
57 67 73 0 0 0 124 125 126 255 
65 66 81 0 0 0 114 114 115 255 
61 80 76 0 0 0 72 72 75 255 
86 62 109 0 0 0 109 110 111 255 
94 61 118 0 0 0 112 112 115 255 
81 13 102 0 0 0 89 91 88 255 
94 61 119 0 0 0 82 83 85 255 
95 92 118 0 0 0 95 95 98 255 
86 62 110 0 0 0 82 83 85 255 
95 61 120 0 0 0 99 100 100 255 
57 68 72 0 0 0 126 127 128 255 
66 66 83 0 0 0 99 100 99 255 
94 62 119 0 0 0 109 109 112 255 
96 61 120 0 0 0 133 136 133 255 
98 48 121 0 0 0 80 79 81 255 
102 61 125 0 0 0 122 123 123 255 
66 67 83 0 0 0 91 91 92 255 
67 67 84 0 0 0 75 76 75 255 
95 62 119 0 0 0 120 121 123 255 
97 62 121 0 0 0 104 106 105 255 
64 47 78 0 0 0 134 135 134 255 
90 40 112 0 0 0 112 109 113 255 
67 67 85 0 0 0 97 98 96 255 
101 62 125 0 0 0 95 97 96 255 
127 92 140 0 0 0 95 97 94 255 
68 67 85 0 0 0 103 104 102 255 
69 67 88 0 0 0 117 118 116 255 
70 67 89 0 0 0 82 83 84 255 
109 54 130 0 0 0 49 48 51 255 
82 107 105 0 0 0 130 130 131 255 
96 63 121 0 0 0 87 86 89 255 
97 63 122 0 0 0 73 73 75 255 
98 62 122 0 0 0 124 126 124 255 
100 62 124 0 0 0 139 141 139 255 
101 62 126 0 0 0 64 65 67 255 
67 68 84 0 0 0 104 104 107 255 
67 68 85 0 0 0 84 84 85 255 
69 67 87 0 0 0 116 118 115 255 
98 63 122 0 0 0 73 73 74 255 
70 68 89 0 0 0 135 137 137 255 
81 66 103 0 0 0 134 132 136 255 
99 63 124 0 0 0 128 129 126 255 
100 63 124 0 0 0 103 105 102 255 
67 68 86 0 0 0 61 60 61 255 
98 64 122 0 0 0 116 114 116 255 
67 69 85 0 0 0 107 106 108 255 
68 69 86 0 0 0 43 42 44 255 
97 105 122 0 0 0 83 84 82 255 
70 69 87 0 0 0 75 76 76 255 
101 64 124 0 0 0 70 71 69 255 
100 97 124 0 0 0 77 78 78 255 
68 69 85 0 0 0 79 78 80 255 
98 65 122 0 0 0 95 93 95 255 
100 64 123 0 0 0 71 70 72 255 
70 66 89 0 0 0 87 88 87 255 
118 85 137 0 0 0 125 129 129 255 
67 70 85 0 0 0 89 87 88 255 
68 70 86 0 0 0 51 50 52 255 
69 70 85 0 0 0 65 64 65 255 
98 65 123 0 0 0 56 53 56 255 
101 65 125 0 0 0 78 79 78 255 
69 70 86 0 0 0 49 48 50 255 
98 66 122 0 0 0 68 66 69 255 
100 65 125 0 0 0 48 47 50 255 
102 65 126 0 0 0 127 129 126 255 
67 71 85 0 0 0 50 48 50 255 
68 71 85 0 0 0 50 49 51 255 
68 71 86 0 0 0 47 45 49 255 
69 71 87 0 0 0 84 82 87 255 
69 71 88 0 0 0 95 94 98 255 
98 66 123 0 0 0 45 43 48 255 
95 70 121 0 0 0 131 133 133 255 
102 66 126 0 0 0 79 79 79 255 
70 71 88 0 0 0 94 93 97 255 
61 111 77 0 0 0 71 71 71 255 
70 71 89 0 0 0 86 85 89 255 
71 71 90 0 0 0 81 82 83 255 
98 67 122 0 0 0 67 66 70 255 
105 18 132 0 0 0 129 131 133 255 
103 66 127 0 0 0 117 118 116 255 
66 72 84 0 0 0 88 87 88 255 
67 72 85 0 0 0 89 88 91 255 
68 72 85 0 0 0 95 94 99 255 
68 72 86 0 0 0 98 95 101 255 
69 71 86 0 0 0 55 54 57 255 
96 67 121 0 0 0 108 108 109 255 
97 67 122 0 0 0 69 68 71 255 
102 66 127 0 0 0 69 70 69 255 
71 72 89 0 0 0 145 144 148 255 
72 71 91 0 0 0 136 137 137 255 
104 67 127 0 0 0 129 130 129 255 
129 94 140 0 0 0 111 114 109 255 
65 73 83 0 0 0 99 99 99 255 
117 85 135 0 0 0 93 94 96 255 
66 73 84 0 0 0 95 96 98 255 
66 72 85 0 0 0 140 141 144 255 
71 72 90 0 0 0 109 109 111 255 
95 68 120 0 0 0 129 130 130 255 
103 67 128 0 0 0 77 78 79 255 
72 72 92 0 0 0 108 109 109 255 
104 68 128 0 0 0 94 94 96 255 
105 68 128 0 0 0 101 102 102 255 
76 77 96 0 0 0 60 59 60 255 
64 74 82 0 0 0 112 113 112 255 
96 69 121 0 0 0 91 91 93 255 
105 68 129 0 0 0 104 104 104 255 
64 74 83 0 0 0 80 82 81 255 
84 50 108 0 0 0 83 84 83 255 
72 73 91 0 0 0 119 119 120 255 
73 73 92 0 0 0 101 102 101 255 
64 75 82 0 0 0 85 86 86 255 
72 74 93 0 0 0 75 74 75 255 
73 73 93 0 0 0 121 121 121 255 
88 71 112 0 0 0 112 114 114 255 
92 92 116 0 0 0 64 62 65 255 
105 69 128 0 0 0 134 133 137 255 
101 32 128 0 0 0 144 144 144 255 
106 69 130 0 0 0 94 93 95 255 
107 1 136 0 0 0 56 57 56 255 
73 74 93 0 0 0 83 83 83 255 
105 70 129 0 0 0 135 134 137 255 
107 69 130 0 0 0 115 116 115 255 
112 69 134 0 0 0 124 124 123 255 
73 74 94 0 0 0 85 85 85 255 
93 71 119 0 0 0 106 106 105 255 
68 106 86 0 0 0 63 62 64 255 
106 70 130 0 0 0 86 85 88 255 
108 70 131 0 0 0 110 110 108 255 
73 75 93 0 0 0 108 108 109 255 
102 101 124 0 0 0 70 67 71 255 
62 77 77 0 0 0 68 68 65 255 
75 75 95 0 0 0 113 114 113 255 
92 72 118 0 0 0 98 99 94 255 
74 76 95 0 0 0 90 90 91 255 
93 32 120 0 0 0 134 133 136 255 
93 73 118 0 0 0 82 83 83 255 
75 76 96 0 0 0 64 64 62 255 
62 79 78 0 0 0 96 96 101 255 
78 77 98 0 0 0 81 81 83 255 
93 75 115 0 0 0 66 64 67 255 
96 88 121 0 0 0 93 93 94 255 
76 78 95 0 0 0 112 111 113 255 
117 19 139 0 0 0 121 123 121 255 
77 78 94 0 0 0 102 101 104 255 
77 77 98 0 0 0 49 48 50 255 
78 78 98 0 0 0 70 69 72 255 
78 78 99 0 0 0 82 82 84 255 
76 79 95 0 0 0 75 75 76 255 
76 78 97 0 0 0 148 147 152 255 
77 78 98 0 0 0 91 90 93 255 
115 74 133 0 0 0 102 103 104 255 
76 79 96 0 0 0 100 100 102 255 
78 79 98 0 0 0 113 112 116 255 
79 78 100 0 0 0 144 145 144 255 
75 80 93 0 0 0 104 104 103 255 
85 18 110 0 0 0 111 112 109 255 
101 82 123 0 0 0 144 142 143 255 
75 79 95 0 0 0 73 73 75 255 
78 79 99 0 0 0 96 95 98 255 
79 79 100 0 0 0 80 80 81 255 
66 81 82 0 0 0 142 145 142 255 
