ply
format ascii 1.0
comment Created by Open3D
element vertex 264
property double x
property double y
property double z
end_header
108 2 136
111 1 140
95 3 122
102 2 132
84 3 107
73 4 92
88 4 111
62 5 76
66 5 82
105 6 134
91 7 115
93 7 119
69 7 86
72 8 89
81 8 103
58 10 72
76 10 94
92 11 117
103 11 132
96 11 123
69 12 85
78 12 99
57 13 68
81 14 103
60 15 72
99 14 126
66 16 82
89 15 115
102 16 129
62 17 76
76 17 98
84 17 107
55 17 68
65 19 80
87 20 111
99 19 126
105 20 131
114 20 138
89 22 114
67 20 84
74 22 94
70 22 89
115 22 139
61 23 77
97 24 123
109 23 134
112 24 136
73 25 91
84 25 108
92 25 117
76 27 96
59 28 73
94 28 120
56 28 70
70 29 88
109 28 135
78 29 100
81 30 104
97 30 124
58 31 71
63 32 77
67 33 84
91 33 118
100 33 128
79 33 101
106 34 132
55 34 69
65 35 81
83 34 107
86 36 111
103 37 128
66 36 84
70 37 89
76 38 98
90 38 114
120 38 137
108 38 132
62 40 79
72 40 92
88 40 111
101 41 126
113 41 135
75 42 95
117 42 136
122 41 138
56 42 70
93 42 117
60 44 75
99 44 123
58 45 73
78 44 99
85 44 108
72 45 91
96 46 120
113 46 135
63 47 79
81 48 103
83 49 106
98 48 123
56 49 71
69 50 87
102 50 127
110 50 134
66 50 83
93 52 119
79 52 102
86 52 109
67 53 85
106 53 129
55 56 69
71 55 91
109 55 132
89 56 112
63 57 82
76 57 98
91 57 116
122 57 139
74 58 94
57 58 72
104 58 127
113 58 134
124 59 140
62 61 78
76 60 96
87 60 110
94 60 118
117 61 137
60 62 75
121 61 139
72 63 91
100 63 124
79 63 101
97 64 121
84 65 107
63 64 80
82 66 104
116 65 136
57 66 71
66 66 83
70 67 88
99 67 123
104 68 128
68 70 85
83 69 106
94 70 120
112 70 133
55 71 70
87 71 111
108 71 130
71 72 90
79 72 102
64 74 82
90 73 114
92 74 116
110 73 131
57 75 72
74 75 94
106 76 128
116 75 134
124 76 138
59 77 75
77 76 97
91 76 114
62 78 78
96 78 119
120 79 136
125 78 140
75 79 93
87 79 111
102 80 125
79 80 101
99 81 122
60 81 74
65 82 81
121 81 137
72 83 90
82 82 104
85 84 108
101 83 124
117 84 135
57 85 70
68 85 85
70 86 88
96 86 121
106 85 128
81 87 104
87 87 111
113 88 133
56 89 70
109 88 130
67 89 84
73 89 92
91 91 115
94 90 118
58 92 73
79 92 100
111 92 130
75 92 96
117 92 134
125 93 138
64 94 80
61 95 76
78 95 97
91 94 114
97 95 121
107 95 128
120 95 136
127 95 140
81 97 102
64 97 79
88 98 110
101 98 124
123 98 138
74 98 92
104 99 126
59 100 73
84 100 106
67 100 84
119 101 136
86 102 109
57 103 70
70 103 87
100 102 123
108 102 128
72 105 91
82 104 105
116 105 134
89 105 113
112 105 131
96 106 120
57 106 71
67 107 84
75 108 94
114 108 132
60 109 75
79 108 101
93 108 115
96 110 118
78 111 97
109 111 128
119 110 134
127 111 139
63 111 78
65 113 81
99 113 121
122 113 136
81 113 101
90 113 113
129 113 140
75 115 93
105 115 126
60 116 74
102 116 124
125 115 138
66 115 82
83 116 105
69 117 86
86 117 109
72 118 89
121 118 136
57 119 71
106 118 126
101 119 123
109 119 129
