ply
format ascii 1.0
comment Created by Open3D
element origin 1
property double x
property double y
property double z
element voxel_size 1
property double val
element vertex 2620
property double x
property double y
property double z
property uchar red
property uchar green
property uchar blue
end_header
-0.053923 -0.176323 0.947875
0.001
30 18 64 98 98 99
23 31 55 88 88 88
11 83 14 64 64 66
30 65 66 108 109 106
37 16 76 82 83 82
42 14 86 85 86 86
54 56 94 52 52 52
42 14 87 78 78 80
44 27 86 83 83 82
17 43 49 54 54 52
57 109 102 48 47 49
44 27 85 95 96 93
13 26 35 37 36 38
29 112 55 65 64 65
47 31 86 68 67 71
52 101 96 56 57 56
42 45 78 78 79 78
51 12 98 80 80 79
19 112 37 72 72 71
8 25 20 88 89 85
15 105 22 97 99 100
10 93 9 43 45 41
55 13 102 55 56 52
47 53 84 73 73 77
42 97 83 69 69 69
9 25 25 84 82 90
31 24 64 91 91 92
45 84 86 85 86 86
61 91 109 83 83 83
61 58 105 89 88 89
30 78 64 57 57 57
8 24 27 68 69 72
18 98 39 77 78 76
48 38 89 86 87 88
63 104 110 61 62 63
53 44 93 60 61 59
54 88 100 65 64 67
54 12 101 97 99 93
5 51 8 75 77 72
9 24 29 74 74 76
35 27 72 81 80 85
16 22 41 90 90 91
11 47 37 71 71 71
23 20 54 87 88 87
30 77 65 61 60 62
28 18 62 91 91 90
32 35 67 72 72 74
19 31 49 53 51 57
44 51 79 111 111 111
51 12 99 78 79 78
28 22 58 42 40 45
7 26 19 88 88 91
26 103 51 106 107 101
58 67 102 84 84 85
23 20 55 78 78 77
24 20 55 89 89 87
32 66 67 88 87 90
16 35 42 83 83 85
10 75 18 82 83 85
36 26 74 81 81 81
57 62 101 84 84 83
14 11 40 82 82 83
24 20 56 78 79 75
55 12 102 87 88 80
15 71 38 105 106 103
23 32 55 95 95 97
33 26 68 104 106 102
28 19 62 78 78 76
13 76 27 66 67 64
28 19 63 74 74 73
41 15 84 95 97 95
48 103 90 59 60 58
15 50 42 78 76 82
42 15 85 82 84 83
47 92 89 69 68 67
19 52 50 88 89 85
41 88 82 87 88 88
51 13 98 99 100 100
17 104 33 68 68 68
52 12 100 88 89 86
12 53 32 94 95 94
50 36 90 76 77 75
28 85 65 79 80 78
6 27 17 95 95 96
8 26 22 96 94 102
30 23 63 71 72 73
34 52 70 89 89 91
24 55 59 74 73 74
42 92 85 108 108 109
9 25 28 101 101 103
60 50 103 105 105 107
9 63 14 57 56 57
5 34 9 58 56 63
37 17 76 85 85 85
57 45 99 97 97 96
15 99 25 67 67 67
20 42 53 87 86 92
15 23 40 82 82 81
44 30 82 45 44 48
11 36 34 86 87 86
25 23 55 95 96 94
51 101 96 73 74 74
16 23 40 102 102 104
24 20 54 68 68 67
5 30 13 52 52 52
26 20 57 70 71 66
52 13 101 76 77 73
7 36 23 56 56 56
54 13 101 69 69 65
14 105 20 100 100 102
47 21 89 72 72 72
9 35 27 66 63 70
56 12 103 74 76 72
12 77 25 57 57 55
25 44 61 63 63 59
9 25 30 57 58 58
47 41 86 86 85 89
10 48 32 99 98 101
31 98 61 96 95 99
9 73 14 52 52 52
24 20 57 55 56 52
51 95 95 69 69 71
42 17 81 65 65 65
18 39 45 91 91 92
27 20 58 83 84 79
27 20 59 82 82 80
61 45 106 92 93 87
55 88 101 77 76 79
51 23 95 63 62 67
49 21 93 66 67 64
36 97 70 65 65 67
15 70 38 64 64 61
24 100 48 82 82 82
27 20 60 82 82 78
32 63 68 89 91 88
25 76 58 88 88 89
41 30 80 95 96 93
15 86 28 51 50 51
38 17 77 87 88 86
38 17 78 70 71 68
25 75 58 79 80 81
24 37 58 78 78 79
58 52 100 92 93 94
63 105 109 66 66 68
40 16 81 84 84 83
41 16 84 82 83 82
57 28 101 73 74 75
54 13 102 51 51 47
47 62 85 47 45 48
14 48 41 64 62 62
42 30 81 56 56 57
8 34 22 77 78 75
55 13 101 46 46 43
19 43 51 52 50 57
10 43 31 75 75 77
24 21 56 103 104 101
28 20 61 90 88 89
40 20 78 107 107 108
19 31 46 70 70 69
11 75 21 72 72 74
28 22 60 66 64 69
39 17 78 64 64 61
40 17 80 58 59 54
41 17 81 63 64 61
39 68 77 57 58 56
8 21 21 87 88 84
19 30 47 71 72 69
20 28 49 80 81 77
29 56 64 61 60 64
41 17 82 67 69 66
9 75 11 59 59 60
48 41 85 110 109 111
15 25 38 80 80 80
32 78 66 102 101 104
38 38 76 85 85 86
5 39 17 75 76 75
11 25 32 74 74 72
11 25 33 76 77 74
26 21 58 57 58 54
4 33 9 84 83 85
14 36 37 82 83 78
26 21 57 68 69 66
17 43 51 42 42 45
28 21 58 65 64 66
58 57 103 83 83 85
53 14 101 100 100 97
10 82 12 49 49 47
7 31 19 110 111 110
23 31 56 79 79 80
27 90 59 81 81 80
54 14 101 72 71 71
5 28 15 89 89 87
19 81 44 65 63 69
15 60 39 60 59 59
24 65 58 82 82 84
16 85 31 66 67 66
31 16 67 89 89 91
52 78 96 107 108 105
11 25 31 65 66 63
11 82 18 79 78 80
14 39 36 80 79 84
12 25 34 70 70 67
14 25 36 65 66 61
49 21 92 81 82 78
3 34 7 70 70 70
35 68 68 104 103 106
4 33 11 67 65 73
14 79 34 69 69 70
26 21 56 42 41 41
11 94 14 78 79 80
39 18 78 88 89 86
37 39 75 97 97 100
42 17 82 85 84 85
30 100 59 71 71 70
42 18 82 76 75 79
54 14 100 92 93 91
37 22 73 101 102 101
31 24 65 76 77 77
45 85 86 68 69 69
56 14 103 52 50 55
55 106 98 106 107 108
56 14 104 62 59 65
20 43 56 80 81 83
10 26 31 98 98 97
41 78 80 69 70 70
57 27 101 76 75 78
55 108 98 113 114 112
14 10 41 88 88 89
16 60 40 56 55 57
12 25 33 71 72 68
55 55 97 66 65 68
14 25 37 75 75 72
17 95 32 69 70 70
25 22 56 99 97 97
5 40 13 93 95 90
26 22 56 80 79 80
26 22 57 75 75 78
47 83 89 64 63 66
12 83 17 58 58 62
42 18 81 51 50 53
7 51 17 88 88 90
63 91 110 66 66 65
55 74 99 71 71 67
15 105 25 53 54 53
4 30 11 67 68 61
5 44 11 69 68 72
11 26 33 79 79 77
57 28 102 91 91 94
22 81 50 68 69 68
15 38 37 70 69 72
63 92 111 71 71 75
12 26 34 56 56 54
14 103 20 92 92 94
4 30 12 71 73 67
52 75 95 99 99 99
15 25 36 63 62 60
26 82 59 113 113 114
35 67 68 63 62 65
15 25 37 59 59 58
47 93 90 55 53 56
11 83 16 50 50 54
29 66 64 49 49 45
54 54 96 43 44 41
21 30 52 79 79 80
35 105 67 70 69 69
19 79 47 109 109 108
27 22 57 41 40 45
3 31 8 69 71 64
12 30 32 83 83 84
56 99 103 99 97 103
46 25 89 72 73 72
28 22 59 49 47 53
40 100 79 52 52 53
55 53 96 76 77 74
3 30 11 71 73 65
55 41 97 79 80 77
20 91 41 67 67 71
18 40 48 60 60 59
41 49 76 79 79 81
37 22 74 73 74 73
15 26 36 48 46 49
32 63 69 79 82 78
18 28 43 68 69 70
35 26 71 56 55 59
44 20 86 75 74 77
13 85 19 104 105 107
15 26 37 54 52 56
26 22 58 60 58 62
18 43 51 65 64 71
40 19 79 78 77 80
42 61 81 73 73 73
40 111 79 53 52 55
40 19 80 62 60 66
3 30 10 89 91 83
17 27 41 69 70 70
34 67 69 104 102 106
12 27 33 103 103 102
40 79 79 91 92 92
21 88 47 82 82 82
44 71 84 85 85 82
41 100 82 79 79 82
34 37 71 62 63 60
13 70 35 107 107 109
30 22 62 91 91 93
54 67 99 75 73 79
53 43 93 62 63 59
18 99 41 75 76 73
45 40 85 60 61 60
27 22 60 65 63 68
58 56 101 78 78 78
22 38 56 76 77 77
46 31 85 82 81 85
28 22 61 70 69 73
5 32 14 62 60 67
41 19 81 92 89 96
19 51 51 68 69 66
41 19 82 78 76 82
10 31 29 65 66 64
2 31 8 98 99 91
21 101 44 93 92 97
3 31 10 43 44 39
44 42 81 73 74 74
19 28 44 67 68 68
41 32 77 93 93 95
3 31 9 58 59 53
13 36 38 86 88 83
51 19 97 87 87 88
6 42 15 69 68 73
55 30 97 91 93 91
4 31 11 47 47 46
5 30 11 70 71 69
13 27 33 106 105 108
4 34 8 62 60 63
28 7 61 78 79 79
51 35 92 50 49 51
5 53 11 95 94 96
49 105 92 86 86 91
31 29 67 81 80 82
40 19 78 86 86 88
42 19 83 71 70 75
5 38 19 78 79 80
42 19 84 72 71 74
54 16 101 82 82 84
2 33 5 46 47 43
4 32 12 63 61 70
40 32 78 85 86 85
39 20 77 79 80 79
15 114 21 89 89 89
31 110 59 72 72 73
2 32 6 58 59 54
33 25 69 57 59 55
59 35 103 70 72 68
11 31 29 87 87 86
40 46 76 73 74 73
10 82 13 55 54 53
33 104 65 100 101 98
3 31 7 74 76 69
43 41 81 90 90 88
5 31 12 62 61 64
16 59 42 66 65 65
46 83 88 61 60 62
13 27 35 51 49 54
18 107 38 91 91 92
14 27 36 65 63 71
25 13 52 99 100 101
2 33 4 55 57 53
43 86 85 67 68 69
15 27 36 40 39 45
42 97 84 78 78 80
62 92 109 67 68 68
15 26 38 89 87 92
18 79 42 84 85 81
33 87 70 64 63 67
24 24 55 77 78 78
32 85 70 81 81 81
10 47 31 81 81 83
28 23 61 79 78 82
29 112 54 57 57 56
39 20 78 65 65 66
40 20 80 95 94 100
11 80 19 110 111 109
3 32 7 51 52 48
4 31 10 51 51 48
32 41 67 89 89 89
45 53 82 82 83 83
61 57 106 67 67 63
36 27 73 86 86 89
5 31 11 54 52 54
14 58 38 70 71 70
12 58 34 73 74 75
33 35 69 77 77 77
25 100 50 99 100 98
15 27 37 73 71 78
56 99 101 39 39 40
24 109 46 84 83 88
16 99 29 83 83 87
19 29 46 82 83 81
15 27 38 60 59 64
16 27 38 77 75 80
16 27 39 71 70 74
49 90 96 64 65 63
48 31 86 107 107 108
39 71 77 100 99 104
31 23 64 75 76 77
60 38 104 64 61 69
28 75 63 92 93 89
24 24 54 108 110 108
29 23 61 81 80 83
29 23 62 67 66 69
13 49 36 111 112 112
26 59 59 78 78 80
44 19 85 84 84 86
19 61 49 101 101 101
53 17 100 89 89 91
50 57 92 94 95 94
17 27 40 66 66 68
55 77 100 58 57 62
15 88 29 82 81 88
47 39 87 85 86 86
23 24 54 101 103 101
11 112 9 45 46 43
30 23 64 74 75 75
42 18 84 91 91 94
55 66 98 49 48 51
30 100 61 100 100 101
38 21 75 82 83 82
51 74 92 71 71 72
22 29 51 103 101 103
21 108 42 59 60 57
38 21 76 79 79 79
15 58 41 102 103 99
4 34 5 37 39 38
56 77 100 46 47 50
44 19 86 78 78 79
16 44 49 69 69 70
5 32 11 50 47 54
37 103 74 70 71 71
32 41 69 82 82 83
5 32 12 58 56 64
11 67 28 43 42 41
37 47 72 72 73 71
43 31 81 81 79 85
39 69 75 51 50 51
5 31 14 53 51 57
47 41 84 73 72 75
35 39 71 49 48 51
13 28 32 92 93 93
21 42 56 112 112 113
23 25 54 75 75 76
19 66 50 79 80 79
44 44 80 100 101 102
19 81 41 51 49 54
55 99 101 55 55 58
52 18 98 78 78 79
34 25 69 68 69 66
52 17 99 83 83 83
3 35 5 48 51 48
3 34 6 58 58 57
21 44 56 94 94 96
4 32 10 77 76 79
30 76 64 57 59 55
12 29 32 76 77 76
13 59 37 72 73 73
37 22 75 74 75 75
27 79 62 85 85 83
40 39 79 77 77 76
25 92 56 71 72 71
26 66 62 73 75 72
45 20 87 73 73 75
37 38 73 81 81 85
25 65 60 80 80 80
6 32 14 58 58 62
14 85 24 60 61 62
43 31 80 64 62 67
6 32 15 66 65 69
2 24 2 112 113 110
19 28 46 68 68 66
56 65 98 56 55 56
10 75 14 60 59 63
49 32 89 61 61 63
6 32 16 61 61 63
15 61 40 67 67 71
12 29 31 92 93 91
12 83 16 53 54 57
33 27 68 77 77 76
13 29 33 85 86 87
12 102 16 58 58 56
17 28 40 81 81 83
17 39 44 73 73 75
18 27 41 72 72 74
39 50 75 65 64 69
50 47 90 92 93 89
36 22 73 85 86 85
32 46 65 101 102 104
45 20 88 73 73 74
51 19 95 105 107 105
42 71 79 103 103 105
51 19 96 73 73 73
50 85 93 112 111 114
57 51 99 85 86 84
59 72 105 75 75 76
61 100 108 86 87 87
3 34 4 73 76 71
21 64 55 43 41 46
8 47 23 72 71 72
4 33 10 59 58 63
21 30 50 84 83 87
38 80 76 51 52 50
29 35 64 78 78 82
7 32 18 72 72 73
42 31 81 51 51 53
22 72 55 81 81 78
23 26 54 89 89 92
19 81 43 60 58 64
33 24 67 72 73 71
7 83 8 79 80 79
36 23 72 82 84 82
8 35 21 85 85 83
46 20 88 65 65 66
41 70 79 72 73 75
10 93 10 72 73 73
52 35 94 68 67 74
15 38 38 56 54 58
47 20 89 73 73 72
4 34 7 52 51 51
18 79 44 81 81 79
12 79 23 89 90 87
15 105 30 77 78 75
24 24 56 86 87 89
7 32 19 64 64 65
11 42 30 69 69 70
18 28 41 87 88 88
3 42 7 52 53 50
24 75 58 78 78 80
19 41 50 54 55 53
12 80 26 94 93 99
58 84 105 93 93 93
18 28 44 69 69 68
15 106 28 64 65 62
30 85 66 73 73 70
35 23 71 91 93 90
39 90 82 61 60 63
3 43 7 56 57 57
13 47 42 90 90 87
46 52 83 51 51 52
7 44 25 51 53 48
6 37 18 108 108 105
39 78 77 69 70 66
35 23 72 68 69 68
36 23 74 78 78 80
17 85 33 78 79 77
45 21 87 94 93 97
9 82 12 66 66 65
19 42 50 49 48 50
47 20 90 78 79 75
44 81 84 94 94 93
21 27 51 73 73 72
28 31 65 78 78 79
15 97 27 69 70 65
21 27 52 80 80 81
54 46 94 55 54 60
35 23 73 84 85 86
47 21 90 68 69 66
14 77 30 65 64 67
4 13 19 90 93 88
62 68 108 61 60 60
48 20 91 97 98 95
49 20 93 93 94 90
13 58 38 79 79 78
4 35 5 33 33 32
15 38 40 61 59 65
21 27 50 99 100 97
36 102 73 92 93 93
32 95 66 62 61 59
59 57 104 70 70 70
3 35 3 71 72 69
46 61 84 62 62 60
41 6 84 77 78 79
55 34 97 81 81 82
13 79 26 72 73 71
4 35 7 54 53 56
7 33 19 92 92 92
18 67 47 92 94 91
14 88 24 111 111 110
43 29 82 50 49 46
44 71 82 103 104 102
13 93 18 97 97 103
8 33 19 72 72 72
9 36 30 75 74 77
19 29 44 90 90 90
45 54 83 93 94 97
10 33 28 80 79 81
44 31 83 105 103 111
15 44 46 87 88 85
34 25 70 50 51 49
4 35 8 58 56 63
16 69 40 92 92 88
6 55 11 101 101 108
13 11 38 110 110 108
5 35 8 108 107 113
24 83 52 91 92 89
32 105 63 77 78 76
4 35 9 65 63 70
46 106 87 67 67 68
19 108 40 73 73 71
62 70 109 69 68 72
8 33 20 103 104 104
8 32 22 75 76 75
15 95 22 72 72 74
19 29 45 94 95 93
21 28 51 81 80 81
11 67 26 58 58 56
14 99 24 73 74 73
35 37 72 56 56 53
39 79 74 68 69 67
48 22 90 97 98 95
58 27 103 108 107 113
31 77 67 71 69 75
5 38 18 91 92 90
3 36 4 82 83 82
8 33 23 61 62 59
21 62 54 76 77 73
38 4 82 47 47 46
29 45 62 41 41 42
18 43 49 63 65 60
18 29 42 108 109 109
34 94 72 77 77 78
34 25 71 60 61 60
38 48 72 69 72 67
49 42 87 66 66 67
19 43 53 79 77 84
29 57 63 68 67 72
48 22 91 85 86 83
11 48 35 88 88 90
12 57 28 72 70 75
49 22 91 62 62 61
6 51 15 70 71 67
48 9 92 85 85 86
18 42 50 45 46 46
18 61 47 89 89 89
46 40 84 65 66 62
49 22 92 54 55 53
39 70 75 48 48 50
50 22 93 61 61 62
12 41 35 85 85 88
9 87 9 95 95 98
50 21 94 108 106 107
10 63 16 74 72 77
55 75 99 48 48 45
2 36 4 97 98 97
20 62 49 59 59 59
55 46 97 99 97 102
37 51 72 99 99 103
30 55 63 59 58 58
52 23 96 77 76 79
8 33 22 64 65 64
8 33 24 69 71 66
39 29 79 68 70 68
14 64 34 81 81 81
31 66 66 63 61 64
26 105 54 76 75 80
53 66 95 103 103 103
33 51 69 98 100 97
9 32 26 109 110 108
10 32 26 73 73 74
52 32 93 83 84 80
23 106 47 99 99 96
20 29 48 43 43 40
44 101 87 101 102 102
33 26 69 73 75 71
4 45 7 46 47 49
11 56 28 56 56 57
34 26 69 55 56 54
15 46 44 97 97 96
35 25 71 54 54 55
26 105 52 76 76 79
31 66 64 48 47 46
2 36 5 50 50 51
58 24 105 69 70 66
54 85 98 53 54 51
2 36 6 41 41 43
7 14 24 102 99 106
27 80 62 66 66 66
41 6 82 64 62 68
3 36 7 57 57 61
14 48 42 69 67 68
10 70 22 101 100 102
5 52 11 56 56 53
4 36 7 59 57 65
37 61 73 51 51 52
9 62 17 72 71 71
4 36 8 57 55 64
43 43 79 86 86 85
7 36 22 75 76 74
9 33 26 63 63 63
9 59 24 109 109 112
33 39 70 69 70 69
10 33 27 69 69 71
46 39 85 88 88 86
36 35 73 87 89 84
23 73 53 67 67 66
19 30 44 94 95 93
19 29 47 76 78 73
34 26 70 52 53 53
5 45 8 50 51 54
17 33 45 78 78 80
48 23 90 91 91 90
34 108 65 104 104 107
48 23 91 55 55 55
49 23 91 57 56 58
33 83 71 91 92 91
2 37 4 76 76 76
11 67 24 66 66 65
17 71 41 51 49 53
21 108 43 62 63 60
7 48 21 72 70 73
2 37 5 78 80 80
19 65 52 57 58 57
57 25 104 42 40 44
45 64 84 69 70 72
42 86 82 97 98 98
57 107 101 88 87 86
9 33 25 70 70 69
19 30 46 99 101 98
55 42 97 77 78 77
23 73 55 68 69 70
48 90 93 89 89 88
65 102 111 57 57 57
20 30 48 57 56 56
34 24 72 70 70 69
48 22 92 60 60 58
58 40 101 89 89 91
49 23 92 50 49 52
24 84 53 62 63 61
43 29 81 54 54 51
10 82 14 47 48 44
32 36 67 96 96 98
50 23 93 49 48 52
14 48 40 56 56 54
53 25 99 94 94 95
39 58 74 62 62 61
36 87 75 57 58 57
21 64 52 70 70 69
50 23 92 65 64 68
19 91 41 46 46 50
50 22 94 75 73 77
19 78 48 73 75 75
4 37 7 51 49 58
11 103 13 73 73 73
26 84 57 86 85 88
5 36 7 89 87 94
60 68 106 108 108 109
27 91 59 75 74 75
47 41 85 69 68 71
8 34 23 63 63 62
58 72 104 72 73 72
44 81 85 75 75 74
16 37 39 57 57 60
38 90 80 53 51 57
32 85 71 81 81 82
34 97 68 72 71 77
9 34 24 58 58 58
40 68 76 44 43 44
13 59 38 70 71 70
33 27 69 48 48 48
45 27 87 82 82 82
35 26 72 71 70 74
30 110 57 81 81 81
36 26 72 97 98 99
40 70 78 73 72 76
54 77 99 48 48 49
15 58 43 104 104 100
27 103 54 51 51 52
9 36 27 79 77 83
50 23 95 77 75 81
47 38 87 86 88 86
37 98 71 100 100 102
4 37 6 51 50 56
41 77 79 70 71 68
5 37 7 63 62 69
8 76 9 63 64 64
22 62 57 64 61 64
16 79 40 70 72 67
5 37 8 74 71 83
9 34 25 44 44 43
32 85 69 61 61 62
9 34 26 60 59 61
34 27 70 51 50 54
13 69 34 81 81 84
34 27 71 62 60 66
35 27 71 69 69 73
11 43 32 100 99 103
35 92 75 77 77 76
6 66 8 82 84 86
53 53 91 73 73 73
36 26 73 74 74 75
16 98 26 87 88 85
23 72 56 73 73 73
31 41 67 89 89 89
48 24 90 76 77 75
15 38 41 94 92 97
51 23 96 70 69 72
13 111 16 56 57 54
33 40 70 75 76 76
43 28 83 109 110 104
3 37 6 49 49 53
39 108 75 67 67 67
8 35 22 82 83 80
57 56 99 72 72 74
4 55 6 97 97 97
53 57 95 54 52 58
32 75 69 82 81 80
9 34 23 70 69 70
12 80 22 78 79 77
55 29 98 81 83 81
18 31 45 106 106 107
7 53 17 69 68 73
14 87 25 92 93 92
32 28 67 91 91 91
28 91 60 80 80 81
23 85 52 61 61 61
28 44 64 72 72 68
33 28 67 84 83 84
8 46 26 49 49 47
16 60 43 63 62 67
33 27 70 41 40 43
58 61 102 82 82 81
36 27 72 79 80 81
51 5 99 101 101 102
47 24 90 79 79 78
60 47 105 58 58 57
48 24 91 50 50 52
11 69 27 46 45 49
58 39 101 75 76 75
35 104 73 63 63 63
49 24 92 58 56 63
25 76 59 105 106 106
13 58 36 80 81 80
41 81 80 73 72 75
26 84 58 72 72 75
8 35 23 75 76 72
51 23 94 91 89 95
47 103 89 58 58 57
3 38 6 84 84 88
25 35 60 67 66 69
4 38 6 64 64 69
22 39 56 83 84 84
7 35 22 52 52 50
58 25 104 46 44 46
8 35 24 46 46 45
27 32 62 68 68 65
9 35 25 59 57 61
27 32 63 69 69 67
9 35 24 97 96 100
12 53 35 73 72 75
20 31 48 47 45 49
49 104 90 45 44 48
15 85 29 76 75 75
20 31 50 60 58 65
23 15 50 104 106 107
37 38 72 51 51 54
21 31 50 63 61 65
36 105 67 69 68 69
8 47 22 84 84 84
21 30 51 66 65 69
59 50 101 81 81 80
33 72 71 88 88 88
33 28 68 57 56 60
19 71 46 83 83 84
48 38 88 84 85 85
20 91 42 86 86 92
33 28 69 69 68 72
48 61 85 62 61 62
36 27 74 77 77 78
40 40 78 89 89 90
22 54 56 80 79 82
37 27 75 80 80 80
47 24 89 107 108 107
49 24 91 52 51 56
54 96 98 72 73 72
24 44 59 80 80 80
52 23 98 74 74 76
4 38 5 104 103 108
14 89 23 74 75 74
7 36 19 111 111 108
17 33 43 100 101 98
7 36 20 103 103 99
8 36 20 101 100 99
18 32 45 93 94 92
17 57 48 89 90 91
13 39 36 83 83 85
14 78 32 86 86 88
11 66 21 83 83 83
16 108 30 75 74 79
33 67 67 58 57 60
15 105 29 93 95 90
52 57 93 74 74 75
21 72 51 68 69 66
21 31 51 69 67 72
22 30 53 86 86 86
15 86 27 50 50 49
31 28 67 93 93 92
6 53 13 46 45 50
46 53 83 62 62 65
32 28 69 111 109 113
34 28 70 90 89 94
47 25 89 78 79 80
21 76 52 62 62 63
35 25 72 60 60 61
27 45 62 48 47 48
47 25 90 70 70 73
48 25 90 97 95 98
9 54 20 95 95 94
21 52 56 113 112 111
52 24 97 88 87 90
32 11 63 82 83 84
10 86 10 57 56 61
38 34 75 80 81 77
52 24 98 78 77 79
13 110 19 77 77 76
5 40 17 74 74 75
42 101 85 79 80 79
16 50 44 71 70 73
53 23 99 93 94 94
50 47 91 58 59 58
6 20 15 78 78 79
7 36 21 85 85 82
31 17 66 80 80 80
8 36 23 47 47 49
5 13 21 40 40 44
10 84 10 97 97 97
9 35 26 50 48 55
16 69 39 105 105 101
38 71 76 62 61 67
18 32 47 92 91 95
19 32 47 64 63 68
15 104 25 78 79 78
19 32 48 65 64 69
23 54 57 79 78 82
58 98 103 54 54 57
40 39 78 81 82 81
21 31 52 72 72 74
11 65 21 105 105 107
31 28 68 98 98 99
37 27 74 92 92 93
38 27 76 87 87 87
18 62 46 74 74 76
53 24 99 76 76 77
8 36 21 90 90 87
42 51 78 101 101 102
11 57 30 79 78 84
28 85 62 79 80 78
13 84 20 66 67 68
8 36 22 60 60 58
55 34 96 52 53 53
57 27 102 71 71 74
15 86 29 46 45 47
8 36 24 48 47 51
56 41 97 75 76 74
8 35 25 43 42 46
21 31 54 73 73 75
7 72 7 71 72 69
19 65 51 79 79 76
12 58 36 62 62 62
25 71 57 91 92 91
22 31 55 76 76 77
11 55 31 85 85 86
15 62 38 71 72 72
53 64 93 63 63 63
30 29 65 105 107 105
30 29 66 79 79 79
55 54 97 70 70 70
37 28 75 99 99 100
13 50 39 63 63 65
62 47 106 48 46 51
21 73 53 52 54 50
52 64 91 88 88 89
38 28 76 80 80 80
38 102 77 90 89 92
45 26 87 83 84 82
9 73 13 52 52 52
15 34 43 68 70 68
46 26 89 87 88 89
14 59 40 58 59 56
54 24 100 77 77 78
37 71 73 87 87 87
22 91 47 68 68 69
45 75 84 69 69 69
7 37 21 73 73 71
10 58 25 62 62 62
7 37 20 81 81 80
17 87 28 47 46 48
9 36 26 46 44 51
10 86 11 75 73 80
53 34 93 55 54 57
4 44 9 71 71 73
11 84 13 84 83 87
9 35 28 84 82 87
17 33 44 77 78 77
15 85 28 68 68 65
29 29 65 85 87 86
36 104 72 71 72 73
38 28 77 77 78 78
57 77 103 68 67 70
45 26 88 84 85 85
13 90 19 90 91 91
54 24 101 72 72 71
49 70 93 76 78 77
39 33 77 74 74 74
52 85 97 70 70 71
61 106 107 61 62 63
7 37 22 79 79 80
6 42 13 58 58 61
61 49 105 91 91 94
57 63 101 84 84 85
25 66 59 74 75 76
9 36 28 74 72 77
8 54 19 65 65 67
54 63 94 105 107 104
16 33 43 92 92 91
31 85 66 58 58 56
43 50 78 85 85 85
28 56 62 50 50 50
37 36 74 77 78 77
55 25 102 61 61 59
22 31 56 72 71 71
46 72 87 83 84 80
14 49 38 62 62 63
30 30 66 80 81 82
46 42 84 78 75 80
24 93 52 113 114 113
39 28 78 78 79 78
10 83 15 47 46 50
55 24 101 70 71 70
10 44 29 95 94 98
55 24 102 79 80 76
8 37 23 102 101 107
14 58 41 96 97 93
8 37 24 85 83 89
1 24 0 86 87 87
11 112 8 92 94 90
4 51 7 74 76 70
5 43 15 74 72 78
24 60 58 72 72 71
9 36 29 68 67 71
29 30 64 86 88 86
18 103 38 80 80 80
30 56 64 50 48 52
54 25 100 105 105 106
55 25 101 86 87 86
60 37 103 39 38 42
11 81 19 70 70 70
37 15 76 92 92 92
56 24 103 79 82 77
9 47 28 85 84 90
57 24 102 67 69 66
66 104 113 73 72 76
46 75 85 70 70 72
58 24 103 72 75 70
30 53 67 63 62 61
57 24 105 74 75 70
15 61 38 94 95 94
62 59 107 61 59 63
7 77 9 83 82 84
9 45 29 107 106 107
16 34 44 86 86 87
23 110 43 89 89 94
50 37 90 100 100 101
54 64 96 61 62 60
7 24 21 60 61 56
26 94 54 52 51 54
23 32 56 82 82 84
39 17 77 101 101 100
24 32 58 74 74 73
29 9 55 88 88 88
22 74 54 60 60 62
40 28 79 97 99 95
24 66 58 99 100 102
57 25 103 47 47 47
25 33 59 86 86 85
58 25 103 51 50 50
58 25 105 46 45 44
3 41 12 77 79 73
24 72 56 75 76 74
6 50 20 81 81 82
10 36 30 92 92 95
15 108 26 66 67 65
58 26 103 62 59 65
18 103 36 82 82 82
23 32 58 73 73 74
24 32 59 69 69 68
6 43 15 91 91 94
26 32 60 71 72 68
24 71 56 110 110 108
29 76 64 61 62 58
46 91 91 98 99 96
43 28 82 82 82 76
47 92 93 94 95 95
44 28 85 98 98 97
56 25 102 67 67 66
59 25 105 46 44 47
29 45 61 72 73 71
17 79 39 66 67 63
37 35 75 73 75 72
24 84 52 80 82 78
44 50 81 91 92 90
7 31 18 83 83 83
11 36 33 81 82 81
31 75 68 64 65 62
5 45 7 32 32 34
27 8 57 77 78 74
15 35 41 97 97 96
26 32 62 73 74 70
21 39 55 70 70 72
32 52 69 77 78 77
40 29 80 62 62 58
41 29 81 56 56 51
44 29 82 54 54 52
44 28 84 85 86 83
29 66 63 57 58 55
56 26 102 86 85 86
9 73 15 50 50 52
14 111 21 93 93 95
10 37 32 84 84 86
4 52 10 79 80 77
24 32 60 43 44 42
28 32 64 90 90 90
40 87 80 93 93 90
15 45 47 76 76 75
56 26 101 68 67 70
48 83 91 83 82 86
10 46 27 106 104 110
15 100 24 74 73 76
18 41 49 75 76 73
26 76 62 74 76 74
57 26 102 77 75 78
10 75 16 97 96 101
28 75 64 106 107 102
11 96 12 67 66 70
37 82 76 110 110 113
5 39 16 86 87 85
8 24 26 79 78 85
11 37 32 90 91 92
3 33 7 102 103 99
11 57 25 81 82 78
11 37 33 75 76 76
15 74 34 83 84 82
11 37 34 78 79 80
12 36 35 94 95 92
51 54 88 96 96 97
42 40 81 70 71 68
7 52 15 61 60 63
62 93 108 65 66 65
13 36 36 110 111 107
14 36 40 84 85 83
14 36 41 74 76 74
36 58 70 67 67 67
35 61 72 66 67 66
33 24 66 65 67 68
13 47 40 95 96 91
40 57 75 109 110 108
10 73 17 77 75 81
15 36 41 84 84 85
25 33 60 47 47 46
26 33 60 53 53 54
27 33 61 51 50 52
17 84 33 77 78 77
27 32 61 61 61 60
38 59 75 46 45 46
39 81 76 50 50 52
28 32 61 58 57 57
28 45 63 39 37 40
17 80 39 97 99 95
20 28 46 59 59 56
45 29 82 45 45 44
57 26 101 68 67 71
36 38 72 52 52 53
22 91 49 47 47 48
54 55 94 61 61 60
4 41 9 92 93 88
29 68 63 64 62 68
7 65 10 74 73 75
47 40 84 79 79 78
39 88 80 61 61 61
29 34 64 72 72 74
16 105 26 72 74 72
27 92 58 88 87 89
4 41 10 69 70 65
55 42 95 99 100 97
15 89 28 77 77 83
4 41 11 59 60 56
53 35 95 74 72 78
5 41 11 66 66 64
15 107 28 69 70 67
5 53 10 111 112 110
10 92 11 44 44 43
18 41 47 82 83 82
13 78 27 55 56 55
38 39 75 69 70 71
12 37 35 67 68 67
13 37 36 62 63 59
43 77 82 95 96 96
55 53 95 109 109 105
25 36 59 76 77 78
13 37 37 59 61 57
37 77 72 83 84 84
20 113 36 92 92 92
14 37 39 63 63 62
12 110 17 96 97 93
28 58 63 93 93 96
3 42 5 57 59 54
28 33 61 57 56 58
21 90 46 110 111 113
52 53 91 76 77 75
13 38 35 77 77 77
13 65 30 69 69 69
43 30 81 53 52 55
43 30 82 40 39 44
22 73 54 52 53 50
39 100 80 38 36 39
45 29 83 61 61 61
3 42 6 66 67 63
19 43 52 73 71 78
39 80 76 53 53 52
17 39 43 73 72 74
4 43 10 92 92 94
14 37 37 62 63 61
7 63 13 80 79 80
14 37 38 66 66 63
7 44 19 78 77 79
59 49 102 89 90 89
15 108 27 57 57 57
45 30 84 66 65 70
24 75 57 71 71 75
35 105 68 65 64 64
57 27 100 110 110 111
26 94 57 71 71 75
4 42 8 60 61 59
42 90 83 84 83 86
17 72 41 75 73 78
10 74 17 60 59 64
17 95 29 62 63 60
4 42 10 52 52 50
14 37 36 51 51 49
20 62 50 66 67 66
27 34 60 54 53 56
9 54 22 76 76 78
13 39 37 64 64 68
32 64 69 69 70 68
27 34 61 50 49 54
41 78 79 71 72 71
43 50 80 76 77 76
6 43 17 71 70 73
27 33 62 42 42 44
28 44 62 52 52 51
47 60 87 80 80 77
48 37 88 85 86 84
41 31 80 99 99 100
46 30 85 69 68 72
56 28 100 80 81 81
4 42 11 56 56 56
61 78 109 71 72 68
13 38 36 75 74 74
14 109 23 79 79 78
14 38 35 45 44 46
27 34 62 59 58 63
18 40 45 68 68 70
28 34 62 70 69 74
47 21 91 82 83 80
57 36 101 85 86 85
28 34 63 64 63 67
3 43 5 56 58 55
3 43 6 51 52 51
24 96 51 76 76 78
3 42 8 76 76 76
7 64 8 66 68 65
21 111 39 80 81 81
13 78 32 62 62 65
4 51 8 88 90 84
33 64 69 97 98 99
3 42 11 74 73 74
4 42 12 57 57 59
42 60 80 78 78 78
5 42 12 51 51 53
14 50 41 65 63 71
14 38 36 54 53 54
14 38 38 55 53 58
29 34 63 69 68 72
39 89 78 45 45 42
31 53 67 85 85 84
59 107 103 68 68 67
21 43 56 75 76 77
42 31 79 84 84 85
29 75 64 100 100 96
42 66 81 63 63 63
60 100 106 91 93 92
18 44 50 73 72 77
45 31 84 106 105 111
48 30 86 93 93 93
9 21 24 92 93 86
1 32 4 103 106 100
38 78 75 60 61 59
56 29 98 112 113 111
56 29 99 81 81 82
6 42 14 50 49 56
20 111 38 80 80 79
32 109 61 77 77 77
25 55 61 67 68 66
31 35 65 67 67 69
52 54 91 72 73 72
63 92 109 84 84 85
15 38 39 49 47 52
29 22 63 98 98 98
5 53 13 55 54 58
15 39 40 70 69 75
18 41 52 47 44 50
25 35 59 80 80 80
20 43 54 76 75 80
19 79 43 69 69 66
12 83 19 90 91 93
41 32 78 72 73 72
39 97 76 94 95 93
28 55 63 61 62 57
23 55 58 87 87 89
22 38 57 73 74 74
12 83 18 82 82 85
41 32 79 70 71 72
47 31 85 78 77 80
48 31 87 69 69 71
50 103 92 94 92 96
55 29 99 74 74 74
56 29 100 90 90 92
24 35 58 104 105 103
18 81 41 47 45 49
10 81 12 103 103 100
55 55 96 60 58 62
29 35 63 79 78 82
37 68 72 65 64 65
30 34 64 69 68 71
16 57 46 89 90 89
30 34 65 84 84 85
20 98 45 95 95 92
58 99 105 77 76 78
17 89 38 81 81 80
4 43 11 66 66 69
51 33 91 91 91 89
5 43 12 66 65 71
16 39 40 75 74 78
5 42 15 59 58 63
14 39 38 71 70 77
19 53 52 75 77 72
14 38 39 57 55 62
24 36 58 76 76 75
56 41 98 69 70 68
30 35 65 70 70 72
31 34 65 85 84 85
50 89 96 88 89 86
40 33 77 78 79 79
56 64 99 58 58 58
25 61 59 92 94 95
32 65 66 88 88 87
34 93 73 74 74 74
40 33 78 69 69 70
45 41 82 50 49 49
21 100 45 75 74 78
61 59 105 92 91 93
41 33 78 74 74 76
39 3 84 61 61 60
29 43 65 76 77 74
48 31 88 67 66 69
5 43 14 81 80 86
13 39 35 107 108 107
32 74 68 112 112 109
20 40 53 69 70 69
10 71 21 82 83 84
51 32 91 65 66 63
48 73 86 89 90 92
8 22 24 54 53 50
14 39 37 70 69 74
16 38 42 97 96 98
39 33 76 95 96 94
50 31 89 75 75 75
29 90 63 94 94 97
51 31 90 97 98 96
19 93 38 63 64 64
11 68 27 49 49 47
54 30 96 90 92 89
4 43 6 73 74 73
5 44 10 68 67 71
9 86 9 54 54 55
5 43 11 88 88 91
21 53 54 92 91 93
5 43 16 56 55 61
6 42 17 109 110 110
10 56 26 73 74 70
12 40 34 93 95 94
13 40 35 86 86 86
10 74 16 61 60 66
45 72 85 67 68 66
62 46 107 68 68 66
49 59 90 83 83 82
13 40 36 79 80 82
42 40 79 75 75 75
13 28 35 67 65 71
16 39 41 72 71 75
8 63 15 62 60 62
56 35 100 74 75 74
24 36 59 76 76 77
38 34 76 73 74 73
48 83 90 83 82 86
50 32 89 73 73 74
50 32 90 70 70 70
23 65 58 70 71 73
51 32 90 69 70 68
53 31 95 71 73 70
53 31 96 70 72 70
54 31 96 66 68 66
46 40 82 66 67 62
27 69 61 60 61 62
54 31 97 77 78 78
44 65 81 105 106 104
4 45 5 94 95 95
54 107 98 75 76 76
23 61 56 92 92 91
4 45 6 57 59 59
4 44 7 82 83 83
7 55 11 55 54 61
42 40 80 78 78 76
32 98 65 68 68 70
6 43 16 71 70 74
12 104 13 106 106 107
38 108 74 69 69 70
43 61 81 81 82 82
6 63 9 43 43 41
34 35 70 85 86 83
23 37 57 80 81 79
4 23 7 72 72 74
57 35 102 63 65 62
15 79 37 76 77 76
10 93 11 58 59 59
32 35 68 57 58 57
6 55 7 80 80 81
51 32 92 58 59 55
16 97 27 68 68 67
6 43 18 64 64 66
12 41 34 75 76 77
34 35 69 81 82 80
38 97 73 78 78 80
37 34 74 105 106 101
41 108 80 80 80 78
52 32 94 78 80 76
7 63 9 41 41 39
25 101 51 46 46 45
4 45 9 76 76 80
6 44 16 98 97 100
34 68 68 75 75 77
6 43 19 60 59 62
14 63 35 81 81 80
11 41 32 94 95 94
11 41 33 83 84 84
51 69 93 75 76 75
16 40 42 110 110 111
56 74 101 67 67 64
19 43 50 52 52 55
7 43 19 76 76 77
17 39 45 72 72 73
22 37 56 83 84 83
12 94 17 73 74 78
33 36 68 84 84 85
10 91 13 87 86 83
34 36 70 68 69 67
25 82 57 71 71 71
49 90 95 77 77 76
11 48 34 83 84 86
10 64 19 73 73 74
17 99 38 91 93 92
36 108 69 79 80 81
17 43 48 91 92 88
38 35 75 81 82 81
52 32 92 78 80 76
54 88 99 49 48 50
53 32 95 84 85 84
6 48 21 80 80 80
4 46 6 67 68 70
14 51 37 92 92 95
38 80 75 73 74 71
11 54 32 65 65 67
50 80 93 93 95 95
6 44 17 98 98 100
12 68 29 53 51 58
12 115 10 43 44 43
21 65 52 71 72 70
10 93 13 107 107 108
6 44 18 85 85 88
25 70 58 111 112 112
59 67 104 78 78 80
7 43 20 74 74 75
47 52 84 56 54 58
34 73 72 93 93 94
25 82 58 73 73 74
7 43 21 90 90 90
47 81 89 64 64 63
48 42 85 77 77 81
17 40 45 60 60 62
59 49 103 72 73 71
41 87 82 72 73 72
18 39 46 99 100 98
15 45 45 95 96 94
23 38 57 77 77 78
6 62 8 67 69 63
14 49 39 61 60 61
58 24 104 61 62 59
16 50 43 76 75 79
34 36 71 67 69 64
50 103 94 110 109 113
36 35 74 68 69 66
17 72 40 80 78 84
20 90 44 52 51 56
52 33 92 63 64 62
10 70 21 95 97 96
20 76 49 88 89 88
58 87 105 91 92 91
7 44 20 78 78 79
40 60 76 57 56 60
7 44 21 57 57 57
10 72 19 88 87 90
11 42 31 88 89 88
37 58 70 74 74 73
58 107 102 86 86 86
17 40 44 79 79 82
36 67 70 63 62 63
18 40 46 70 70 71
45 71 85 82 83 80
8 48 24 63 63 68
53 75 94 110 110 111
18 40 47 65 65 66
50 53 87 61 61 63
43 28 85 83 84 82
44 92 89 46 46 45
19 39 47 108 108 107
40 67 78 62 63 61
58 89 105 102 102 101
35 36 72 69 70 66
25 101 50 65 65 65
21 39 54 75 76 75
22 39 55 75 75 76
33 94 71 64 64 64
35 92 73 114 114 112
17 61 45 72 71 74
35 36 73 64 66 62
19 80 45 96 94 96
18 71 45 90 89 92
30 42 66 74 75 73
53 33 93 63 63 63
20 81 45 61 60 65
8 44 24 77 78 74
10 85 9 63 64 63
21 39 53 98 99 98
50 70 92 109 110 110
7 26 21 103 103 105
14 104 19 77 76 81
35 37 71 67 68 64
49 104 92 52 51 56
4 52 8 40 41 38
31 87 66 78 78 80
51 34 92 70 71 68
47 82 87 52 51 51
19 55 51 80 80 81
8 44 21 92 93 93
19 67 50 76 77 77
12 49 37 85 85 83
8 44 23 62 64 61
10 43 30 78 78 79
43 50 79 76 77 76
18 40 49 50 51 48
36 98 70 95 96 98
39 49 74 52 51 55
49 84 92 71 71 74
21 40 53 69 69 70
36 37 72 59 59 59
53 34 94 56 55 60
18 70 42 69 68 70
6 51 13 65 66 63
8 44 25 83 85 80
39 38 77 86 87 87
18 41 46 93 94 93
37 70 73 76 77 75
19 40 50 77 77 74
39 46 76 61 62 60
59 82 107 59 59 58
27 102 54 53 54 51
37 61 74 59 58 63
60 36 103 50 50 50
21 40 54 80 80 82
56 36 100 91 91 91
19 80 41 59 59 59
52 34 91 63 62 65
29 89 64 67 67 68
42 87 83 75 75 76
53 34 95 58 57 62
19 90 41 46 45 46
52 64 93 65 65 66
19 40 51 78 78 76
13 69 36 72 72 72
35 38 71 65 67 64
19 54 52 50 51 52
55 109 101 44 44 44
34 38 71 60 60 57
56 76 101 59 58 61
35 38 72 48 48 49
51 35 91 66 67 66
54 34 96 78 78 80
18 81 39 71 70 72
9 62 19 95 95 97
7 45 22 85 85 83
59 38 102 74 74 75
11 57 26 64 64 62
13 94 20 59 59 62
8 45 24 91 93 89
33 106 65 53 52 53
19 41 49 47 48 46
19 41 51 49 48 50
53 67 95 92 93 91
20 41 52 82 82 84
52 35 93 51 50 56
23 82 50 85 85 85
56 40 100 58 59 59
54 35 95 69 69 73
50 84 93 73 73 73
8 46 21 98 99 97
12 76 24 65 65 65
36 62 72 74 76 76
39 108 78 75 76 73
8 45 25 57 58 54
9 45 27 63 62 63
16 96 28 53 53 52
18 42 49 62 63 60
34 105 68 70 69 69
19 42 48 77 77 75
35 39 70 63 65 64
21 51 56 84 84 83
11 107 12 103 103 110
38 68 73 67 67 66
55 35 97 70 70 71
55 56 96 45 43 48
58 72 103 90 92 91
8 46 22 93 93 91
12 67 30 77 76 79
8 46 23 88 90 85
8 46 24 87 89 84
37 88 76 68 69 67
33 84 71 76 76 75
17 43 50 46 46 48
44 52 81 112 113 110
36 39 72 41 41 44
11 81 20 63 62 64
38 38 74 60 60 62
14 109 27 110 110 112
50 103 93 87 86 91
20 107 42 108 109 105
49 36 90 66 68 66
62 80 111 71 69 74
36 9 74 59 60 59
42 56 79 83 83 84
51 36 92 99 97 102
35 68 69 69 67 71
34 108 64 89 89 92
54 35 97 83 82 85
31 56 66 66 64 69
41 29 79 107 108 105
12 66 28 64 64 62
55 35 98 83 83 84
8 46 25 71 72 68
27 75 62 82 83 81
19 42 52 56 54 62
16 84 31 87 88 87
58 66 103 82 82 84
36 39 73 79 78 84
49 36 89 96 98 95
9 83 13 67 67 67
35 39 72 57 56 60
27 102 55 51 51 49
39 39 76 67 68 69
38 47 74 69 70 67
58 62 101 77 77 77
14 84 23 85 86 85
39 39 77 83 84 85
40 108 77 69 70 68
10 82 15 68 68 65
6 36 21 105 107 103
49 37 89 70 71 70
49 37 90 79 79 80
9 63 17 51 49 57
56 35 101 63 63 62
46 71 85 102 103 99
19 53 51 65 66 62
18 43 50 48 47 52
13 77 28 43 44 42
20 42 52 69 67 74
31 55 67 114 112 113
57 77 105 75 74 75
34 40 70 75 75 75
48 37 89 71 72 71
56 36 99 93 93 93
58 35 103 71 72 69
59 35 104 69 71 66
38 81 76 47 47 48
57 53 99 97 98 96
30 43 65 80 81 79
40 97 81 91 91 90
60 35 104 82 83 79
47 7 94 59 59 59
8 47 25 49 49 51
55 24 100 87 88 89
48 70 91 72 73 72
30 86 64 110 112 110
8 47 26 47 46 50
11 82 14 62 63 60
16 43 48 107 109 105
20 41 53 54 55 53
24 85 55 104 105 107
13 77 26 40 40 37
45 81 87 89 89 86
40 101 78 55 55 56
31 75 66 72 73 69
18 43 52 85 82 89
5 51 11 71 72 67
15 99 27 91 90 93
20 42 55 88 87 90
58 36 103 49 50 48
10 47 32 77 76 79
60 35 105 74 75 72
49 53 88 68 68 69
15 95 24 59 60 62
7 48 22 76 75 77
9 47 27 64 63 69
55 45 94 62 61 65
9 46 29 83 81 86
20 43 55 79 78 81
55 107 98 69 70 69
41 39 79 81 82 81
23 106 48 79 79 78
59 36 103 50 50 49
11 115 10 47 47 48
59 36 104 52 53 48
11 58 30 81 80 85
60 36 105 56 56 54
50 54 88 89 89 91
6 48 20 106 106 106
26 100 51 89 90 88
8 47 27 53 51 58
8 47 28 64 62 69
48 49 89 76 77 76
54 56 96 43 42 46
17 44 49 63 61 64
23 82 55 82 83 80
17 97 34 82 81 84
17 44 50 60 59 65
61 37 105 49 48 51
47 39 86 92 92 91
58 36 102 88 89 87
40 109 76 68 70 69
61 36 104 53 53 53
60 48 105 72 71 74
14 74 33 112 113 111
42 101 84 82 83 84
10 74 15 56 55 61
41 88 81 98 98 99
27 44 63 67 68 63
8 66 12 71 71 76
61 36 105 58 58 58
10 55 26 60 61 59
7 49 19 109 110 108
7 48 23 82 82 84
41 71 78 87 87 88
26 110 48 66 66 67
8 48 25 80 79 84
47 71 89 82 82 80
9 47 32 78 78 80
11 54 29 96 97 96
15 44 48 62 62 61
11 96 11 83 83 88
31 42 67 83 83 85
40 109 80 62 62 60
31 42 68 91 91 92
27 9 54 83 83 81
28 79 63 70 71 71
39 98 76 65 66 64
43 40 80 90 91 90
22 85 51 106 108 104
22 43 58 89 89 90
49 58 91 68 69 69
25 81 59 63 63 62
30 42 67 70 71 71
13 102 19 88 87 89
13 66 30 76 76 74
46 40 83 74 75 71
46 39 84 110 110 105
60 37 104 48 45 51
7 49 20 104 104 105
16 108 28 47 47 48
12 76 23 72 73 72
23 65 57 69 69 72
9 48 30 107 108 110
30 75 65 90 90 85
21 44 57 78 77 79
22 44 58 73 72 74
60 37 105 61 59 64
48 51 85 90 89 92
61 37 106 54 52 57
5 45 6 31 31 33
15 59 42 86 86 84
10 47 34 67 67 68
16 72 38 82 83 82
27 104 56 79 79 84
15 46 45 88 87 88
29 43 66 76 76 75
52 79 97 93 93 94
15 59 41 67 68 65
60 90 108 96 96 94
30 43 67 99 99 101
13 76 29 58 58 57
18 84 35 77 77 79
44 41 82 51 51 49
18 82 39 68 68 71
28 34 61 35 35 36
47 40 83 57 57 55
3 52 6 63 64 60
4 52 7 48 50 44
31 105 62 71 72 71
5 51 9 84 85 80
26 105 51 62 63 62
5 51 10 87 87 83
59 56 104 84 84 84
5 51 13 91 93 87
27 104 53 44 44 46
44 64 82 97 98 96
58 38 102 75 75 75
27 112 52 89 90 88
5 51 14 75 77 71
6 50 16 111 113 108
57 67 101 102 101 104
10 48 33 81 81 83
42 77 80 67 68 67
10 48 34 69 69 71
24 44 61 71 69 65
30 55 65 60 59 59
26 44 62 77 77 73
26 44 63 79 79 74
27 43 63 77 79 72
7 53 15 83 81 87
48 80 91 82 83 82
47 74 85 97 98 99
28 43 64 106 107 101
47 41 83 53 52 54
66 103 113 54 54 58
59 38 104 66 65 70
5 52 10 51 52 49
6 50 18 82 83 82
20 77 50 88 88 90
12 47 38 108 108 105
14 47 43 92 92 90
16 61 41 78 76 83
26 44 61 66 67 64
6 52 11 66 68 64
61 49 104 96 95 100
25 48 60 74 75 77
7 51 14 100 100 100
21 53 55 71 69 74
11 48 36 74 74 75
32 57 66 65 65 68
40 99 81 93 91 94
12 48 37 75 76 74
12 66 24 64 65 66
14 47 44 82 82 82
28 111 54 58 58 56
27 44 61 51 51 49
29 44 63 63 62 62
29 100 59 74 74 74
43 82 84 84 84 84
45 42 82 58 57 61
46 42 82 69 67 72
18 50 47 76 76 77
22 109 42 52 50 53
21 73 52 66 68 64
29 103 57 86 85 89
58 39 102 72 73 74
28 21 61 76 76 77
12 67 27 60 60 59
59 39 103 89 90 92
4 53 6 91 92 90
6 52 10 53 53 53
11 81 16 90 92 88
5 52 12 48 49 46
51 53 90 66 66 66
22 82 50 70 70 71
44 29 85 72 72 73
6 52 14 52 52 53
7 51 15 62 62 61
14 47 42 76 75 73
26 45 61 59 58 59
28 45 62 45 44 47
28 46 62 68 67 72
12 79 27 55 54 58
45 42 81 72 71 73
20 98 46 66 67 65
47 42 84 60 58 63
28 112 55 38 38 37
13 104 16 78 77 84
13 49 37 81 81 81
32 110 61 99 97 101
14 50 39 55 54 59
13 48 37 57 57 56
47 42 85 56 54 59
51 63 90 79 80 81
48 42 86 64 63 67
25 56 60 66 66 66
57 40 99 95 96 94
5 52 13 43 43 42
12 49 36 83 84 85
22 86 51 78 78 79
13 49 38 72 72 70
18 102 37 90 91 89
27 46 61 73 72 76
16 84 33 47 48 47
29 45 64 57 55 60
44 43 80 70 71 71
19 54 53 68 66 72
38 59 74 53 52 52
6 52 15 45 44 47
15 49 41 55 53 58
38 58 72 72 72 70
28 46 63 73 70 78
58 107 103 61 60 60
38 79 74 91 92 91
30 45 64 76 75 78
52 100 96 83 83 82
30 45 65 101 100 103
58 56 100 75 76 76
43 43 80 64 64 63
23 49 58 66 67 66
2 32 7 65 65 62
50 42 87 73 72 73
10 102 13 64 65 63
29 55 64 61 61 59
19 101 39 90 91 90
50 42 88 60 60 61
31 52 68 81 82 81
26 105 53 69 68 74
11 65 24 65 65 65
57 41 99 70 71 72
6 53 12 65 65 69
6 53 14 55 54 60
15 94 23 101 101 102
6 53 15 61 59 66
47 53 83 63 63 68
5 42 17 109 108 111
27 46 62 68 68 72
45 73 86 51 52 53
9 72 12 42 43 41
21 108 40 78 79 76
12 54 32 70 70 71
29 46 63 83 82 88
7 82 8 105 106 104
45 94 89 61 62 63
29 46 64 65 63 69
21 91 45 65 66 68
20 80 42 105 102 107
30 46 64 68 67 72
31 46 65 71 71 73
43 44 79 69 70 69
12 58 31 71 70 74
43 44 80 85 86 86
42 90 84 54 53 57
51 68 95 69 70 70
49 43 87 81 81 82
21 89 46 80 80 80
49 59 91 75 75 75
11 106 11 51 50 55
51 42 89 86 87 87
5 54 9 70 70 71
5 54 10 73 73 75
5 54 11 72 71 75
12 58 35 67 68 68
15 49 42 70 68 72
30 46 65 62 61 65
45 72 86 50 51 50
26 75 61 89 89 88
18 102 36 94 94 93
11 105 12 52 51 54
32 46 66 69 69 71
16 71 40 57 55 58
20 81 44 67 65 71
33 46 66 89 90 89
10 74 14 61 60 65
50 43 87 95 95 96
50 43 88 77 77 79
41 108 81 65 66 65
10 84 12 101 100 103
51 43 89 65 65 65
51 43 90 54 54 52
45 94 88 68 68 69
52 43 90 74 74 74
53 32 96 89 90 87
52 42 90 112 112 111
5 54 8 49 50 50
27 47 61 70 71 73
15 36 42 76 77 75
40 69 77 92 91 93
6 54 9 39 40 42
53 54 94 86 86 84
6 54 10 50 50 54
8 75 9 68 70 66
61 91 110 109 110 108
6 54 11 55 54 60
6 54 12 61 59 66
39 5 81 38 37 39
6 54 13 67 66 72
19 40 46 89 89 89
6 54 14 88 86 93
22 96 50 71 73 72
7 53 18 70 70 73
54 54 97 71 69 71
14 50 38 77 77 79
27 47 62 95 93 99
33 46 67 63 64 64
50 43 89 63 63 63
50 53 88 60 60 61
52 43 91 67 68 66
8 66 8 68 69 70
53 43 91 78 79 78
18 80 42 54 53 51
55 42 96 77 78 76
56 42 97 72 72 73
45 51 82 66 67 64
56 42 98 86 86 87
39 4 85 92 92 95
5 55 8 54 54 57
48 74 89 87 86 89
20 53 52 55 55 54
13 50 37 100 101 101
57 98 103 58 58 61
14 50 40 84 82 89
56 27 102 111 112 114
10 56 24 81 82 80
25 47 59 105 107 106
26 47 61 75 75 79
17 95 30 85 86 86
33 46 68 64 64 65
39 100 76 99 99 97
12 102 15 59 59 56
52 68 95 79 79 79
29 76 65 42 42 40
34 46 68 69 70 71
50 63 89 75 75 78
17 99 37 69 70 70
41 45 77 73 74 73
42 45 79 103 104 104
19 39 48 106 107 105
39 81 77 67 66 71
60 46 104 70 70 67
19 101 41 61 61 63
53 43 92 62 63 60
57 45 101 114 114 113
15 90 23 62 62 66
54 42 95 90 90 88
54 42 96 62 62 60
17 98 38 68 68 68
6 55 9 66 66 71
6 55 10 58 57 64
48 49 88 78 79 77
25 110 47 73 73 74
7 54 17 94 93 98
49 48 89 82 83 80
54 46 95 68 66 72
7 54 18 69 69 71
52 57 94 80 80 82
38 70 74 66 67 65
8 53 18 81 81 84
50 95 93 80 80 81
8 53 20 86 86 86
13 51 36 87 88 88
15 62 37 89 90 89
13 51 37 72 73 73
31 77 65 49 48 50
14 51 38 65 65 68
41 97 81 78 78 77
12 79 28 59 59 64
5 44 9 71 71 74
25 48 59 79 80 80
12 83 15 53 53 57
23 24 55 61 62 61
26 48 60 75 76 77
33 47 67 75 75 76
3 18 9 70 71 64
34 46 69 69 69 70
23 96 50 75 76 75
35 46 69 71 71 72
8 81 8 103 104 100
40 45 77 56 57 57
52 43 92 47 47 45
15 89 25 78 79 81
53 85 100 58 59 55
54 43 96 81 81 80
9 107 8 99 100 103
17 114 27 87 87 86
8 54 20 74 74 75
62 48 107 90 89 96
16 50 45 62 61 64
7 27 19 99 99 101
34 57 69 67 67 70
28 58 62 75 76 78
17 50 45 75 75 76
26 59 61 73 75 75
20 91 40 88 89 90
34 47 68 77 77 79
18 103 37 77 77 77
13 83 19 108 108 110
40 46 77 83 84 85
11 56 29 62 61 63
41 46 77 105 105 108
8 54 21 68 68 69
38 61 75 77 75 82
14 69 39 109 109 105
13 52 34 98 99 98
13 52 35 72 73 73
14 90 23 68 68 70
26 81 59 76 77 77
46 60 86 81 81 78
17 85 32 69 69 69
13 52 36 70 70 71
24 48 59 75 75 75
20 89 43 53 53 52
54 44 94 62 62 62
9 54 21 72 73 74
9 54 23 64 64 66
6 50 21 107 107 111
12 52 34 84 85 86
61 60 105 68 68 69
16 51 45 86 85 86
17 51 45 73 73 76
17 51 46 76 76 78
17 50 47 76 76 77
13 111 20 95 95 96
58 51 101 72 73 72
23 49 57 94 95 93
24 49 58 81 81 81
24 49 59 79 80 81
24 94 52 104 105 104
36 47 72 70 72 69
18 72 45 65 65 69
10 73 16 60 59 64
3 43 4 77 79 76
39 47 75 79 80 78
53 44 94 49 49 48
55 44 94 73 72 73
12 53 34 85 85 87
13 101 16 82 84 80
18 51 47 70 70 72
11 58 32 58 59 60
18 51 48 70 70 72
21 17 47 51 51 52
18 50 49 82 82 82
40 91 83 83 82 84
55 44 95 64 64 64
10 14 33 55 55 53
31 109 60 72 72 73
9 55 22 97 97 100
12 112 11 55 55 54
10 54 25 70 70 71
18 51 49 63 63 64
19 50 51 110 111 108
40 100 81 71 70 74
9 25 31 68 69 69
36 48 72 48 48 48
37 48 73 53 54 52
15 95 23 75 75 77
39 47 74 57 58 57
53 45 92 87 88 85
6 38 21 78 79 81
54 45 94 52 51 54
10 55 22 105 105 107
42 77 81 91 90 93
40 79 78 63 62 62
10 55 24 72 73 74
39 19 78 85 85 86
10 54 26 84 85 84
17 51 48 73 73 75
57 76 102 83 82 86
39 98 78 63 64 60
11 58 29 76 74 81
19 51 50 69 70 70
17 97 28 88 86 91
38 48 74 58 58 59
26 104 52 57 57 57
55 45 96 65 63 67
12 115 9 100 102 99
10 55 25 75 75 75
11 54 31 63 64 63
12 54 31 83 84 83
37 58 72 58 58 54
18 51 50 57 58 56
44 75 83 111 113 110
19 51 52 77 78 74
60 36 106 50 51 48
14 112 20 94 93 96
22 54 57 76 76 78
21 51 55 74 74 72
39 48 73 71 71 71
16 113 25 86 85 86
53 46 93 52 53 54
47 83 88 54 53 55
55 45 97 66 65 69
30 105 61 75 75 75
35 106 69 73 72 77
10 55 27 66 67 64
20 51 54 81 81 78
22 51 56 79 80 81
14 24 40 62 63 62
52 46 93 48 49 49
54 45 96 75 73 78
52 78 98 62 62 62
45 72 84 74 75 73
9 75 14 80 79 84
11 55 29 74 74 74
11 65 20 92 93 92
30 112 56 81 80 81
19 52 51 76 77 73
61 71 107 72 72 73
19 52 52 71 72 67
21 64 53 64 64 63
20 52 52 67 67 64
36 49 72 92 92 91
24 106 48 80 81 79
37 49 73 49 48 51
21 88 46 78 79 78
39 49 73 70 69 71
13 78 26 73 74 72
51 46 92 73 73 71
10 103 9 79 80 76
35 58 69 69 69 70
8 62 13 78 78 75
56 46 98 80 79 81
2 24 1 89 91 88
56 45 99 79 79 78
27 94 57 66 65 68
24 55 60 74 74 74
10 56 25 81 82 79
22 107 46 70 70 69
11 56 26 57 57 56
11 55 27 68 68 65
20 52 55 72 70 71
55 56 98 73 73 76
20 51 55 68 68 67
38 89 78 43 42 41
21 52 54 111 112 111
29 76 63 66 67 64
36 82 75 63 64 64
38 49 74 40 38 42
51 47 91 71 72 70
51 47 92 68 69 69
51 64 91 106 105 108
37 107 71 76 77 78
52 47 93 98 98 100
11 13 36 70 70 68
49 74 91 82 82 84
56 46 99 77 77 77
12 69 33 75 76 77
57 46 100 77 77 77
27 76 60 92 93 94
20 52 54 54 54 51
27 112 53 59 59 56
36 50 71 77 78 75
65 91 112 70 69 72
37 50 72 54 54 55
63 57 107 58 57 56
39 49 75 69 68 72
40 49 75 72 72 75
58 46 101 78 79 78
35 50 71 78 79 79
8 32 21 64 64 64
36 50 72 45 44 46
46 30 86 102 101 104
37 50 73 58 57 62
38 50 74 70 69 75
40 50 75 67 66 71
40 50 76 66 66 69
22 81 49 65 65 66
40 49 76 69 69 72
50 48 90 78 78 78
46 105 88 54 54 54
50 48 91 75 75 75
59 46 102 70 70 69
59 46 103 77 78 75
18 67 50 81 82 82
61 46 105 58 58 55
20 53 53 57 56 57
41 50 76 66 66 68
45 103 87 78 79 78
17 69 46 75 75 74
41 50 77 74 74 76
38 87 76 95 95 93
51 74 93 77 77 76
42 50 77 73 73 73
30 100 60 97 97 98
54 55 95 55 55 54
60 46 105 59 60 56
16 72 40 64 63 66
61 46 106 58 58 54
61 46 107 55 56 53
10 57 27 53 53 52
11 57 27 58 58 58
59 57 105 69 69 68
19 53 50 89 89 86
15 114 22 78 79 80
36 51 72 66 66 69
42 50 78 76 76 77
40 109 79 52 52 51
17 83 33 95 97 96
49 48 88 79 80 76
29 100 57 80 81 78
59 47 101 110 110 110
62 68 109 49 49 48
12 77 29 40 39 41
59 47 103 83 83 82
62 46 106 52 51 50
19 17 43 68 68 68
23 82 51 85 86 86
12 85 12 50 49 53
19 54 50 76 76 75
20 54 52 50 50 49
28 45 61 66 66 67
21 29 50 74 73 73
37 51 73 69 68 74
20 91 44 91 91 96
49 49 89 82 84 83
20 88 42 80 80 77
15 85 26 66 66 64
20 76 50 85 86 83
11 66 25 69 71 69
60 47 103 97 97 97
21 63 54 53 53 51
61 47 104 38 37 39
33 66 67 90 89 92
39 82 77 77 77 82
8 66 10 57 57 62
13 75 30 110 110 108
62 47 105 54 53 57
46 11 93 80 78 86
63 68 108 58 56 57
11 58 25 77 77 76
39 6 81 49 46 54
11 57 28 44 43 46
11 57 29 51 49 55
18 54 49 105 105 103
26 94 55 46 46 48
18 54 50 92 93 91
59 56 102 92 92 93
20 54 53 48 47 50
20 54 55 65 63 69
33 51 70 75 76 74
55 74 100 72 73 69
44 50 80 101 102 100
28 67 63 48 47 46
48 49 87 83 84 81
11 58 27 48 47 51
9 61 19 76 77 76
30 104 62 72 72 71
13 111 17 61 61 60
11 58 26 52 52 53
16 108 33 81 81 85
38 90 77 64 63 61
18 55 50 88 89 87
17 98 34 61 60 62
18 54 51 63 64 62
39 59 75 63 63 64
21 54 56 66 65 69
32 52 68 85 86 85
32 52 70 89 90 89
33 52 70 79 80 80
13 47 41 96 98 91
14 79 36 81 81 82
43 51 79 91 92 93
5 51 12 72 73 68
59 57 103 74 74 75
43 87 84 103 103 105
43 51 80 65 65 65
33 73 70 84 84 83
44 51 80 78 78 78
54 96 99 74 75 73
45 50 83 109 110 104
34 35 71 96 97 94
46 50 84 77 77 73
50 74 90 75 75 77
47 50 87 71 72 71
33 105 65 59 59 58
48 50 88 86 87 86
10 59 23 79 79 80
24 85 52 65 65 65
11 58 28 66 64 70
28 77 64 62 61 64
20 71 48 108 108 106
38 69 75 60 60 58
57 53 98 73 73 72
21 65 54 51 50 55
12 57 32 85 85 87
17 55 48 91 92 92
51 75 93 110 109 110
17 55 50 73 74 73
18 55 51 66 66 66
31 53 68 78 79 78
2 31 7 70 72 65
44 51 81 70 72 70
39 60 77 95 94 99
45 51 81 56 57 54
20 89 45 95 95 93
46 51 83 71 72 68
15 104 23 69 70 71
52 106 94 74 74 75
48 50 87 86 86 86
7 72 9 65 64 62
60 48 104 81 80 82
12 69 34 66 66 68
61 48 105 60 58 63
62 48 105 40 38 46
62 48 106 79 76 84
59 100 105 101 102 102
9 59 22 84 85 85
16 69 45 70 71 69
11 58 31 73 73 77
16 85 29 71 71 70
44 55 80 65 66 66
42 109 80 62 61 61
12 58 32 85 85 87
64 104 111 69 69 73
10 63 15 83 80 86
20 89 41 48 47 47
39 102 77 73 73 76
12 57 33 100 101 101
49 93 93 114 113 114
17 55 49 78 78 78
11 71 21 68 68 68
46 51 82 56 57 54
46 51 84 62 62 60
13 79 32 78 77 80
47 51 85 64 63 63
21 72 53 67 69 65
43 14 88 82 82 85
61 48 106 59 58 63
9 60 21 85 85 86
47 73 87 51 50 54
8 73 11 77 77 78
12 58 33 74 74 76
17 56 49 79 79 80
4 43 5 49 50 47
22 55 57 88 88 90
22 54 58 68 68 69
40 81 79 77 77 81
23 54 59 88 88 87
47 51 83 64 63 62
60 49 103 80 81 80
31 35 67 58 57 59
9 60 20 81 82 80
14 100 22 72 73 74
13 68 28 112 110 114
60 49 105 60 61 63
9 60 22 80 80 81
30 54 66 84 84 82
30 54 67 69 68 68
25 94 53 73 74 71
18 93 35 86 87 86
31 54 67 73 73 73
10 113 9 52 53 51
45 52 82 60 60 59
56 52 97 84 86 83
4 41 13 53 55 50
30 99 62 81 80 82
16 84 27 113 113 111
46 52 82 65 65 64
47 52 83 58 58 59
48 74 87 59 59 61
46 53 82 84 84 86
6 62 7 80 82 76
9 60 19 91 91 91
16 56 48 90 91 90
23 55 57 84 84 85
25 55 60 76 76 75
28 55 62 67 68 64
57 77 102 56 56 59
28 54 64 96 97 90
29 54 66 81 82 79
14 51 39 87 87 92
5 38 20 71 72 74
7 62 8 75 77 71
54 54 94 51 51 48
7 62 9 77 79 74
64 90 110 60 59 57
59 67 103 107 106 111
8 62 14 71 72 68
32 42 68 94 94 96
9 61 18 73 73 71
12 59 34 111 112 111
13 59 34 104 105 104
13 58 37 78 79 79
19 99 40 64 65 62
35 106 66 54 52 55
26 55 61 84 85 82
47 106 88 82 83 84
13 65 33 78 78 79
27 55 62 68 68 65
33 77 68 57 55 59
29 55 65 60 60 58
8 75 8 74 75 71
30 65 64 83 84 78
32 65 67 69 69 68
59 50 102 76 77 76
64 79 110 52 51 54
59 50 103 71 72 72
57 95 103 60 61 59
6 63 7 54 56 52
6 63 8 43 44 41
34 107 65 67 67 70
8 62 12 73 73 69
12 105 15 72 71 76
9 61 17 94 94 91
13 59 36 86 86 87
13 58 39 112 113 111
26 84 59 68 68 69
25 56 59 69 70 69
26 55 62 48 49 47
29 55 63 62 62 60
48 52 85 71 70 74
5 63 7 95 96 94
7 63 8 48 48 45
8 63 11 58 58 56
10 83 13 62 62 63
9 62 15 65 65 63
52 63 92 75 75 75
14 58 40 101 102 98
50 58 91 81 82 81
16 58 44 88 89 87
45 53 83 53 53 57
47 83 90 54 53 57
55 88 102 93 92 96
10 87 9 73 74 77
13 94 18 67 67 70
16 58 45 80 80 80
36 57 70 95 95 94
16 58 46 84 84 84
25 60 58 85 85 85
25 56 61 84 85 84
55 86 102 80 79 80
12 68 33 85 85 86
53 68 96 112 111 113
26 56 62 50 51 49
28 56 63 44 44 44
30 56 63 50 48 50
47 53 85 71 69 75
17 89 39 68 68 66
48 52 86 85 84 88
18 88 39 82 82 79
58 51 100 77 77 77
7 63 10 46 46 45
8 63 12 55 55 53
16 58 43 109 109 106
27 56 62 56 56 55
63 70 109 85 85 90
29 56 63 49 48 50
57 73 103 64 65 64
45 54 81 76 78 77
42 60 79 78 78 79
58 51 99 105 107 105
30 99 61 80 80 80
6 64 8 74 75 72
6 64 7 91 93 90
13 112 15 55 55 55
9 63 13 49 48 49
40 78 78 69 69 67
9 63 15 57 56 58
10 62 16 105 104 106
16 59 41 58 58 57
16 59 44 80 79 79
39 60 75 53 51 56
30 56 65 60 58 62
61 79 109 69 69 67
31 76 66 57 56 56
10 69 24 84 84 81
44 54 80 74 75 73
13 25 33 112 113 107
44 54 81 69 70 68
45 54 82 65 66 67
57 52 98 77 78 77
56 87 104 95 94 96
28 68 61 99 99 98
57 52 99 76 77 76
48 62 85 54 54 56
7 64 9 73 73 72
20 101 41 75 75 77
37 28 76 89 89 89
8 63 13 53 52 51
8 63 14 49 48 48
34 57 68 73 73 74
16 96 30 64 63 66
14 60 38 69 69 68
22 90 46 110 110 111
8 73 12 78 78 77
51 89 97 86 86 84
15 60 40 55 54 55
41 110 79 72 71 74
16 59 40 56 55 56
35 87 72 72 72 73
16 59 43 67 66 67
28 57 61 90 92 94
18 16 44 52 54 51
28 57 62 74 75 78
31 56 65 88 86 90
46 39 87 70 71 70
43 54 80 95 96 94
26 81 58 86 87 85
49 54 86 91 91 93
