ply
format ascii 1.0
comment Created by Open3D
element vertex 638
property double x
property double y
property double z
end_header
51 1 101
52 1 102
39 3 83
50 3 100
37 4 77
39 5 79
49 5 97
41 6 83
48 7 94
28 7 58
37 7 76
43 7 86
24 8 52
25 8 54
27 9 55
36 9 73
45 8 89
46 9 91
48 10 94
13 10 40
29 11 59
35 11 70
12 12 37
24 12 52
31 11 62
45 11 89
50 12 97
32 12 66
53 13 100
55 13 102
4 14 19
5 13 23
7 13 27
9 13 30
11 14 33
12 14 35
22 14 49
34 14 69
42 14 86
35 14 72
4 16 15
11 16 33
14 15 38
20 16 46
31 16 66
36 15 75
40 16 83
53 15 100
10 17 31
17 16 41
18 17 44
39 17 78
41 17 80
4 18 11
29 18 63
51 18 97
3 19 8
19 18 46
21 18 51
42 19 83
2 20 5
9 19 28
17 20 43
23 19 55
27 20 60
39 20 78
44 20 86
49 20 94
1 21 2
5 20 13
6 21 16
8 21 24
25 21 56
27 21 58
47 20 89
3 22 8
7 22 20
15 21 41
37 22 74
48 22 92
0 23 0
8 23 23
29 22 61
51 23 95
2 24 5
14 24 39
24 23 56
31 23 64
33 24 68
34 24 71
53 23 98
2 25 3
6 25 19
9 24 27
9 24 30
13 25 35
22 25 53
47 24 89
55 24 101
57 25 103
7 25 22
12 26 33
2 26 4
33 27 69
35 26 72
37 27 75
44 27 86
58 26 104
5 27 16
13 27 34
16 27 38
17 27 41
20 28 49
38 28 77
56 27 100
12 29 31
19 28 44
19 29 47
30 29 66
42 29 81
44 29 84
55 29 98
4 30 12
44 30 82
2 31 8
5 31 14
10 31 29
20 30 49
27 31 63
47 30 86
53 31 95
7 32 19
17 31 45
22 31 54
23 31 56
26 32 60
41 31 79
49 31 88
51 32 91
2 32 4
4 33 10
8 33 22
9 33 26
39 33 76
52 33 93
3 34 6
9 34 28
15 34 42
24 34 58
28 34 63
25 35 59
31 34 66
36 35 74
51 35 91
54 34 96
2 35 4
4 36 8
7 36 21
8 35 25
14 36 40
33 35 68
34 36 71
56 35 100
58 35 102
60 36 104
3 37 6
5 37 6
8 36 27
10 36 31
11 36 34
13 36 36
23 36 57
48 37 89
5 38 18
14 38 38
21 38 55
36 38 73
46 38 86
16 38 41
33 39 70
39 38 76
58 38 101
4 40 15
12 40 35
17 39 44
18 40 48
20 40 52
41 39 79
46 40 84
4 41 12
18 41 50
31 41 67
44 40 81
46 41 82
56 40 98
3 42 7
10 42 31
54 42 96
3 42 4
5 43 17
5 43 12
19 42 54
29 43 65
48 42 86
50 42 88
52 42 91
4 44 9
7 43 20
7 44 23
9 44 28
16 43 48
18 43 51
22 43 57
27 44 62
42 43 79
53 44 93
4 45 6
8 45 26
24 44 60
54 45 94
14 46 44
27 46 60
30 45 64
33 46 67
39 46 75
55 45 98
58 46 101
61 46 105
7 47 21
9 47 30
35 46 70
51 47 91
60 47 104
7 47 25
10 47 34
12 47 36
13 48 40
14 48 42
37 48 72
23 49 58
39 49 74
48 49 88
61 48 105
6 49 19
13 50 38
14 49 42
42 50 77
58 50 101
6 51 15
16 50 45
17 50 47
18 51 50
21 51 55
35 50 71
44 50 80
46 51 83
47 51 85
4 52 6
5 52 11
6 52 14
12 52 34
19 52 53
56 52 98
31 52 68
46 53 83
7 53 18
8 53 21
11 54 31
18 54 50
21 54 56
44 54 81
49 53 87
51 53 89
53 54 92
54 54 95
4 54 7
5 54 9
6 54 12
9 54 24
11 55 28
24 55 59
28 55 62
30 55 66
16 56 48
26 56 60
41 55 77
55 55 97
58 56 101
10 57 26
32 57 66
52 56 93
59 56 104
62 57 107
11 57 30
12 58 34
27 57 61
35 57 69
38 58 74
13 58 37
14 58 39
15 58 42
37 59 71
48 58 90
9 59 22
15 60 40
24 59 59
47 60 87
61 59 106
8 61 18
37 60 73
40 60 77
42 60 80
45 61 84
59 60 103
9 62 16
17 61 44
18 61 47
19 61 50
22 62 55
34 62 70
6 62 9
8 63 13
14 62 36
20 63 52
47 62 87
57 62 100
6 63 7
9 64 15
31 64 67
44 64 83
50 63 90
53 63 93
54 64 96
9 64 18
12 65 31
21 64 54
55 65 98
7 65 9
10 65 21
11 66 24
18 66 50
24 65 58
26 65 61
29 66 63
31 66 65
42 65 80
11 67 27
33 67 67
53 67 96
57 66 102
59 66 104
11 68 30
17 68 47
36 67 71
38 68 74
39 68 77
61 67 107
62 68 109
12 69 33
16 69 43
27 68 61
50 68 93
10 69 23
13 69 36
15 70 39
17 70 41
48 70 91
9 71 19
25 70 58
36 71 73
39 70 76
41 70 79
61 70 107
7 72 9
8 72 13
9 72 16
15 72 37
18 71 45
20 72 49
22 72 55
43 71 83
46 71 85
47 72 88
7 73 7
16 72 40
21 73 52
33 73 70
57 72 103
22 74 54
46 74 86
49 73 90
55 74 100
8 75 11
9 74 14
10 74 18
11 75 20
14 74 32
15 74 35
24 75 57
31 75 67
52 74 94
53 74 97
7 76 8
12 75 24
12 76 26
20 76 49
26 75 60
28 75 63
30 76 65
44 75 82
12 77 29
34 77 69
55 76 99
57 76 104
18 78 47
30 77 65
37 77 72
40 78 78
59 78 107
12 79 25
13 78 32
14 79 35
18 79 44
28 79 62
38 79 75
51 78 96
62 79 109
64 78 110
11 79 22
16 79 38
18 80 40
49 80 93
11 81 18
19 81 43
25 81 58
39 80 77
41 80 81
47 81 90
8 82 8
9 82 11
10 82 14
18 82 38
21 81 47
22 81 50
23 81 52
35 82 74
44 81 84
45 82 87
60 81 107
17 83 35
24 83 55
46 83 87
57 83 104
12 83 18
16 84 32
25 84 55
32 84 70
48 83 90
10 85 10
11 84 14
14 84 22
15 85 25
23 85 51
26 84 59
30 85 66
50 84 93
52 84 97
53 85 99
55 85 102
15 86 28
21 86 48
28 85 62
29 85 64
44 85 85
33 86 69
41 87 81
14 88 25
16 87 32
20 88 46
30 87 65
35 87 72
37 87 75
52 88 99
54 87 101
57 87 104
15 88 28
16 88 36
18 88 39
20 89 42
28 89 62
38 89 78
59 89 107
13 90 21
40 90 81
49 90 95
61 89 109
63 90 111
12 91 18
21 90 46
27 90 58
41 91 85
47 91 92
9 92 9
10 92 13
12 92 16
19 91 40
23 91 49
24 92 52
25 92 55
35 91 75
37 91 79
44 91 87
46 92 89
18 93 36
34 93 72
47 93 90
61 92 108
63 92 111
50 94 93
11 94 13
13 94 19
14 94 22
16 95 31
24 95 53
26 94 57
28 94 60
29 94 62
33 94 69
45 94 87
52 95 96
57 94 104
9 95 9
10 95 11
15 95 26
16 96 28
31 95 65
33 96 67
43 96 84
54 95 98
21 97 48
35 97 70
55 97 101
16 97 31
16 98 35
31 98 62
37 97 72
38 97 76
40 98 80
15 98 26
17 98 39
19 98 41
21 99 44
39 99 77
57 98 103
14 99 23
20 100 41
29 100 58
53 99 98
59 99 106
13 101 19
23 100 46
24 100 50
26 101 52
40 100 80
42 101 83
50 101 94
62 101 109
11 102 14
13 102 17
18 102 38
27 102 55
37 101 75
44 101 86
64 101 111
66 102 112
9 103 9
17 103 35
35 103 72
46 102 88
49 103 91
14 104 20
26 104 51
29 104 58
50 104 93
10 105 11
12 104 15
15 104 26
16 105 30
27 104 54
30 104 62
33 105 65
35 105 68
62 104 109
9 106 9
16 106 34
23 106 48
36 106 70
45 105 85
47 105 89
53 106 96
60 106 105
58 107 102
10 107 11
15 107 28
14 108 25
18 107 37
20 108 41
22 108 45
33 107 63
35 107 67
37 108 72
42 107 82
55 107 99
56 108 101
16 108 33
22 109 43
31 109 60
39 108 76
39 109 78
13 109 21
25 109 47
30 110 57
41 110 80
12 111 16
20 111 39
27 111 51
28 111 54
11 111 10
12 112 14
19 112 36
10 112 8
11 113 10
14 113 20
12 113 15
15 113 24
18 113 33
12 114 12
11 115 9
