ply
format ascii 1.0
comment Created by Open3D
element origin 1
property double x
property double y
property double z
element voxel_size 1
property double val
element vertex 2384
property double x
property double y
property double z
property uchar red
property uchar green
property uchar blue
end_header
-0.315288 -0.804634 3.17272
0.005
206 163 19 66 99 128
205 205 17 33 28 18
207 163 18 69 65 57
191 64 10 69 59 49
19 215 60 50 43 36
24 170 56 56 100 127
29 170 55 65 90 107
54 169 49 32 36 37
71 242 43 68 104 131
55 169 50 54 83 104
55 169 49 39 47 51
64 203 47 61 104 135
158 239 18 57 58 58
56 169 50 68 109 138
74 199 38 52 65 68
86 167 36 73 68 66
129 166 26 32 30 28
149 252 23 55 100 129
129 166 25 42 63 77
130 166 26 48 65 80
173 210 21 39 55 65
189 107 14 45 61 64
59 25 36 64 91 110
131 166 25 65 99 123
25 214 59 24 23 14
72 181 40 36 59 75
81 171 36 55 44 36
137 165 21 82 132 167
96 230 37 69 100 126
172 164 17 46 39 27
206 163 18 54 64 71
134 220 27 64 86 104
76 54 22 19 16 13
208 163 16 42 53 61
209 163 17 53 89 117
23 170 58 51 68 79
56 169 49 51 70 82
151 49 13 27 32 35
152 179 19 120 132 142
66 168 44 87 135 172
84 168 37 66 87 103
132 7 12 94 147 183
85 168 38 63 89 109
149 241 24 55 40 28
98 167 33 69 54 40
205 5 7 63 108 141
101 167 31 68 97 121
130 166 25 65 112 148
132 166 23 57 81 103
133 166 23 54 81 101
63 92 38 93 97 95
134 166 24 55 60 63
5 48 49 87 155 195
136 166 24 36 32 23
94 4 18 54 54 47
136 166 23 46 42 37
171 164 15 34 30 20
208 163 18 62 55 49
112 242 32 49 42 34
30 170 55 80 131 168
50 169 50 60 99 128
62 169 45 46 68 79
116 200 29 38 35 27
63 169 44 37 35 30
64 169 43 72 59 46
187 198 13 76 126 170
85 168 37 96 89 81
133 17 12 35 28 23
86 168 37 80 70 60
127 232 27 77 86 91
87 168 37 41 32 23
100 169 30 34 56 75
133 28 15 124 183 229
168 205 18 73 118 156
199 35 9 69 91 109
170 231 21 49 47 52
88 168 37 31 32 29
27 210 62 33 43 47
100 167 30 51 63 73
151 43 14 45 71 88
132 82 20 77 107 128
125 166 27 74 122 159
28 235 61 63 97 124
137 166 23 46 47 44
44 43 30 44 49 53
88 31 23 114 164 194
130 217 24 23 21 16
207 163 16 43 45 46
114 193 29 84 84 81
22 170 61 54 88 118
64 169 44 41 34 26
152 54 16 91 151 203
84 168 38 75 108 132
43 56 31 33 27 20
204 4 7 68 111 148
91 168 37 66 101 126
129 231 26 107 98 86
99 167 28 52 57 58
137 166 21 78 123 154
169 165 19 46 41 36
17 171 63 82 140 182
153 242 21 44 41 38
18 171 61 55 48 42
76 253 42 92 81 65
189 59 10 83 140 185
21 221 64 64 108 142
21 170 61 50 80 107
26 170 55 48 68 85
86 168 38 86 92 96
22 210 62 52 42 31
102 167 31 85 138 176
173 222 17 56 88 112
155 120 18 77 103 127
193 199 14 29 28 20
133 166 25 49 56 64
58 88 38 61 95 117
168 165 19 89 77 63
171 165 18 65 105 144
127 140 24 81 147 200
171 165 17 45 57 63
19 107 53 77 126 160
115 195 29 68 62 57
210 74 15 29 34 38
21 171 61 52 79 100
48 239 52 58 81 92
21 171 60 45 61 71
22 171 60 68 111 144
63 169 45 34 33 25
83 168 37 67 121 156
114 246 33 23 16 11
41 197 49 104 89 75
89 168 38 40 50 55
165 102 18 70 67 64
96 168 32 78 126 165
190 181 14 17 14 8
97 168 31 63 106 139
24 158 56 33 28 21
154 180 22 67 79 88
98 168 33 70 113 145
99 168 31 37 37 31
11 265 68 73 118 143
98 78 25 68 97 122
42 195 50 55 73 87
99 168 32 41 38 27
124 166 27 82 144 189
138 166 23 44 48 43
150 253 24 49 80 99
172 165 16 45 37 25
150 248 19 26 23 16
173 165 15 58 60 59
95 83 29 13 11 10
166 234 19 110 92 76
79 238 41 79 83 88
174 165 15 74 90 101
98 138 30 37 34 26
85 169 37 55 40 28
174 165 16 79 95 108
16 171 62 79 90 103
16 171 63 57 93 122
27 171 55 33 38 41
91 157 35 48 71 88
30 170 54 72 112 140
186 267 13 122 131 77
51 170 49 70 64 58
180 236 12 73 115 157
52 170 49 40 42 44
42 259 56 67 92 109
169 222 19 68 118 162
27 33 37 99 97 86
66 169 42 67 98 121
90 168 38 71 117 148
95 12 19 65 57 52
97 81 26 24 21 12
98 168 31 42 59 72
100 168 32 53 46 34
101 168 31 56 58 56
102 168 31 56 75 90
192 264 12 57 49 30
125 167 27 68 81 90
16 239 68 36 38 30
170 165 19 39 65 85
42 194 50 61 88 109
77 181 39 73 124 165
205 164 18 48 52 58
206 163 17 69 54 46
171 26 8 26 21 17
41 241 53 53 71 87
181 202 15 76 84 87
104 203 34 40 35 27
23 171 60 82 136 180
27 171 56 28 26 22
25 86 50 30 26 23
29 171 54 75 64 53
134 231 30 57 84 97
30 171 55 55 66 71
49 170 50 59 95 120
94 24 22 63 51 44
52 170 50 52 42 29
14 275 66 138 168 61
142 169 21 66 97 118
207 7 6 36 38 36
53 170 49 32 33 33
63 236 46 62 87 105
53 170 50 40 55 71
54 170 50 56 92 119
164 37 10 87 133 170
150 252 21 62 89 114
103 168 31 69 102 128
127 167 26 36 33 30
55 139 45 85 147 189
42 51 31 24 21 15
128 167 25 55 96 128
62 78 36 30 24 19
122 235 29 70 118 163
129 167 26 57 93 119
194 68 11 43 40 34
130 167 26 64 97 120
207 164 17 57 64 69
114 198 31 30 28 18
26 79 44 52 42 33
191 199 14 59 85 104
209 164 19 39 40 41
185 201 14 77 64 53
209 164 20 49 65 79
171 231 19 54 38 31
50 107 40 44 57 57
84 170 37 30 27 22
18 171 60 36 30 24
61 163 46 21 19 13
29 171 55 41 36 28
173 10 4 93 153 185
31 171 55 83 137 178
101 168 30 51 47 35
133 167 23 58 91 116
33 242 56 57 97 124
184 132 14 96 148 189
96 82 28 27 31 33
204 164 19 74 119 157
22 146 53 52 94 127
190 193 12 30 26 17
182 169 14 67 87 106
181 168 15 75 130 173
31 171 54 73 108 130
49 170 49 52 48 47
67 169 43 81 132 168
151 253 23 48 48 47
86 169 37 32 28 22
88 168 38 35 38 37
100 168 33 59 48 35
72 239 45 69 90 108
103 168 32 65 94 113
189 198 13 42 39 33
127 233 24 63 114 151
135 167 24 63 51 41
113 255 33 22 15 10
136 167 23 44 45 43
136 167 22 37 34 25
208 164 18 36 29 27
51 38 30 34 29 23
6 182 64 58 91 115
190 190 10 156 136 127
15 172 62 91 100 104
74 116 31 55 59 65
35 141 53 71 137 178
48 170 50 71 132 173
188 182 14 48 75 96
41 262 51 108 127 80
115 184 32 58 81 100
63 170 43 40 49 57
146 69 14 61 96 125
128 141 23 73 74 79
135 234 21 55 53 35
99 4 18 29 24 18
65 170 43 45 37 28
65 170 42 49 40 31
85 70 28 77 144 198
62 9 30 33 43 51
75 190 38 47 38 28
66 170 43 102 88 73
81 169 37 70 131 172
55 230 53 81 135 173
82 169 38 74 121 149
84 169 36 73 59 47
88 169 37 62 98 122
88 169 38 55 78 94
23 9 33 64 54 40
58 235 53 60 68 70
102 168 32 50 44 39
171 6 4 122 121 109
71 175 41 36 43 41
139 167 22 54 63 68
190 177 13 31 25 19
190 175 13 50 47 46
8 43 47 160 190 212
167 165 18 84 60 29
201 203 16 40 33 23
168 165 18 35 26 21
7 51 43 24 20 16
209 164 18 40 53 62
18 172 62 40 54 63
21 106 53 89 138 181
27 239 58 60 128 170
20 171 58 40 49 48
67 170 43 63 80 91
83 34 22 107 140 159
7 185 65 68 104 134
104 168 31 81 135 173
64 171 44 78 144 190
28 100 51 88 136 175
124 167 26 92 89 82
39 118 40 28 42 57
126 167 27 45 45 44
139 167 21 68 109 138
153 240 19 49 69 90
59 230 50 74 68 60
138 167 20 83 138 173
155 248 23 78 110 130
91 234 40 60 70 74
45 70 34 79 125 165
65 75 37 83 123 156
166 166 19 81 78 72
130 13 8 66 98 124
167 166 19 61 52 43
36 5 25 50 71 85
168 166 19 38 40 41
169 166 18 45 62 76
136 4 8 152 162 167
152 247 19 55 46 35
173 165 17 42 36 23
206 164 16 37 46 51
14 172 63 63 99 126
200 271 12 110 131 44
19 172 62 52 82 102
150 242 22 42 34 24
20 172 61 63 107 139
169 166 19 54 81 104
170 166 19 71 112 148
172 166 17 47 66 76
173 166 15 36 28 20
181 206 17 61 68 71
38 253 52 46 42 40
205 164 17 45 36 30
6 256 72 49 45 40
31 171 53 61 76 84
169 10 7 45 37 30
49 171 50 73 80 86
116 263 31 160 144 116
45 136 42 69 50 26
170 14 8 49 81 108
50 171 49 54 46 39
81 169 38 79 142 182
28 16 35 16 14 11
6 49 46 60 108 144
87 169 38 44 59 68
103 4 16 101 160 207
43 58 34 77 82 94
100 169 31 47 65 75
101 169 32 41 36 24
147 36 10 92 116 128
48 236 53 60 105 142
102 168 33 56 47 35
123 168 27 70 74 78
124 168 27 70 65 62
59 14 35 109 158 181
59 14 34 75 123 150
129 208 25 48 51 49
124 168 26 76 61 47
125 168 26 39 31 27
115 261 33 38 29 19
170 166 18 58 87 110
130 93 20 79 113 145
95 5 17 54 48 40
34 255 52 52 93 118
73 245 42 52 41 30
171 166 18 67 102 131
172 166 16 42 56 67
173 166 17 42 40 30
173 166 16 35 30 19
121 237 31 56 71 83
172 223 18 61 48 38
175 166 16 53 50 46
175 166 15 63 75 83
204 165 19 74 108 137
29 172 55 32 28 21
69 241 41 66 56 47
26 89 45 73 131 177
52 171 50 58 89 114
149 240 22 56 82 103
52 171 49 32 36 36
38 203 52 42 35 25
171 83 17 70 116 160
73 243 39 42 35 23
53 171 51 75 136 178
62 20 33 37 49 66
58 212 51 24 21 15
53 171 50 65 113 144
55 214 52 59 110 148
7 43 47 153 187 217
187 37 5 81 71 78
88 203 35 82 121 153
54 171 50 66 112 144
98 169 33 81 141 188
24 210 62 48 66 81
102 169 31 42 38 29
103 169 31 57 60 65
124 168 28 47 44 46
125 168 27 38 33 29
34 140 53 46 48 49
126 168 26 41 54 67
127 168 27 38 46 48
127 168 26 53 90 120
74 64 24 68 90 106
116 181 29 84 140 183
139 167 24 44 45 44
139 167 23 43 39 32
165 166 20 67 92 112
83 38 21 86 137 174
165 166 19 103 102 98
151 243 18 75 63 52
167 166 20 57 55 54
205 165 18 68 70 71
139 207 27 64 79 83
35 38 37 61 83 94
206 165 17 60 63 67
39 195 49 28 25 18
206 165 16 55 80 103
207 165 17 56 78 100
97 234 34 65 83 97
30 172 54 59 47 36
142 34 9 88 81 71
94 17 16 93 152 183
31 172 54 82 67 52
162 239 22 62 97 119
32 172 53 71 79 82
48 171 49 66 60 60
47 171 50 71 126 165
53 171 49 44 62 70
103 169 32 62 52 42
105 169 31 69 111 142
160 202 20 60 49 35
129 168 28 77 140 179
38 249 51 35 28 22
136 167 24 63 81 91
203 165 18 66 100 131
58 215 50 51 48 44
152 197 21 48 43 39
28 172 54 46 69 86
32 172 54 74 82 86
115 51 23 43 73 97
42 193 49 33 43 49
50 171 50 96 84 72
21 145 53 55 94 128
68 170 42 79 117 149
55 2 23 105 168 200
81 200 38 72 95 115
80 170 38 76 128 162
82 170 37 99 85 71
91 213 36 49 83 109
83 170 37 48 35 25
175 31 10 33 33 23
101 169 31 37 36 28
188 242 15 58 46 35
155 42 9 91 135 168
138 167 24 35 30 20
151 65 10 36 27 18
140 167 21 78 121 154
167 166 18 46 38 28
108 67 23 83 75 57
61 158 49 64 101 129
174 166 14 36 29 19
40 54 30 77 114 139
204 165 17 48 43 39
92 227 33 52 69 77
205 165 16 49 47 43
63 235 49 50 44 36
152 258 25 52 39 25
13 173 63 72 91 108
14 173 63 93 94 95
152 123 18 46 45 35
80 170 37 67 89 111
159 65 14 87 140 179
87 170 37 72 117 148
80 64 27 89 122 154
88 170 37 82 141 183
169 30 11 96 173 214
135 168 24 65 75 81
135 168 22 65 111 146
180 206 19 58 66 68
137 168 23 41 41 35
150 43 12 59 90 114
136 168 22 52 77 98
91 220 38 78 143 193
187 172 16 77 134 170
137 168 22 39 40 35
138 168 22 38 31 22
40 188 49 29 26 18
140 167 22 68 101 123
24 229 61 55 64 71
152 263 25 138 120 92
207 165 16 73 122 166
127 236 30 65 81 86
17 173 61 37 47 53
173 167 18 65 132 186
151 251 24 49 50 49
18 173 61 48 71 85
27 217 62 53 79 95
33 172 54 77 121 155
65 171 42 43 48 48
35 245 53 54 128 175
66 171 42 38 34 27
67 171 42 66 53 41
80 170 39 84 147 187
101 169 33 57 43 33
122 168 27 59 77 93
123 168 26 106 91 74
142 238 25 51 38 26
139 168 24 30 24 15
138 3 8 148 166 177
164 167 20 81 93 102
29 36 40 44 76 100
47 71 34 80 122 159
60 216 53 34 36 35
167 167 19 45 54 61
8 42 46 148 176 193
126 71 21 85 154 207
174 166 17 36 30 21
154 257 21 54 52 47
175 166 17 56 61 64
208 165 18 57 86 113
16 173 61 35 39 41
30 172 55 37 31 22
103 169 33 37 29 19
131 6 8 63 69 73
139 168 23 37 32 21
74 46 29 83 151 195
140 168 23 39 34 26
202 101 15 67 104 137
62 144 44 15 15 13
140 168 22 51 55 58
74 252 42 42 48 49
163 167 20 70 98 124
165 167 20 64 60 57
2 262 68 43 44 21
165 167 19 88 77 69
208 215 19 70 70 66
167 167 18 51 80 104
136 206 26 51 50 52
168 167 19 53 78 100
41 255 53 62 62 66
169 167 19 59 93 119
191 115 16 72 137 195
56 208 49 64 53 41
132 12 13 92 162 212
206 165 18 65 60 59
207 165 18 37 31 31
15 173 61 40 41 46
154 254 26 33 27 20
115 263 28 231 216 182
18 173 62 62 103 133
50 37 34 55 48 45
33 172 53 71 106 131
188 177 13 53 80 102
203 167 18 99 92 86
46 172 50 79 134 172
49 172 49 38 34 31
79 170 38 81 147 188
106 169 32 84 142 186
123 138 25 80 132 178
121 169 27 65 69 72
189 270 16 132 142 56
122 169 27 76 66 57
95 211 37 71 61 48
130 214 26 47 55 62
123 169 26 60 51 45
171 233 20 52 85 105
173 217 18 57 72 86
163 167 21 80 123 159
112 199 29 37 36 28
172 167 16 63 95 126
38 180 47 66 118 152
16 274 68 74 84 35
173 167 16 50 74 91
40 241 54 68 123 164
152 199 21 54 74 88
175 167 17 43 36 26
204 233 16 48 46 44
17 173 62 51 79 100
50 172 49 40 52 59
128 207 27 92 76 58
20 218 62 39 52 62
147 39 16 73 145 200
52 172 50 75 121 156
85 170 38 42 53 61
149 113 18 77 119 154
198 36 10 65 101 133
100 170 32 75 127 168
132 83 21 60 96 122
151 184 20 47 35 26
101 170 31 57 86 107
60 7 30 30 27 21
150 178 22 46 60 71
101 170 32 55 80 96
95 10 20 49 39 32
101 170 33 62 95 121
102 170 33 63 95 121
150 114 16 32 52 69
103 170 32 46 36 25
122 169 26 91 76 62
62 207 49 45 50 51
124 169 27 35 27 22
124 169 26 48 60 73
94 74 30 139 172 190
127 169 27 77 132 174
193 261 10 52 62 56
164 167 19 104 95 84
174 167 16 38 40 36
199 203 16 63 102 134
58 100 40 38 34 29
175 167 15 40 36 28
176 167 15 50 50 49
113 187 29 34 31 24
203 166 17 57 54 52
203 166 18 73 92 107
190 52 10 58 84 111
204 166 17 62 55 50
154 254 24 30 23 16
95 218 36 26 24 19
204 166 16 68 74 76
153 174 21 55 64 73
46 237 54 71 125 167
204 165 16 61 55 46
141 171 23 53 84 112
205 166 17 68 72 72
93 81 25 66 82 96
46 39 34 124 126 124
68 236 47 67 101 130
12 173 64 64 131 174
16 173 60 30 25 16
29 173 54 55 91 118
30 173 54 34 38 40
79 171 38 68 92 111
103 170 31 37 33 23
4 198 66 28 34 33
126 4 13 86 164 219
94 18 23 60 90 110
104 170 32 56 45 34
106 237 35 76 66 58
30 35 40 29 27 21
105 170 32 53 45 36
65 238 48 69 135 187
115 241 30 47 40 34
121 169 28 73 112 145
145 170 21 73 107 134
122 169 28 55 62 73
173 167 17 61 102 132
24 165 56 63 57 50
206 166 17 63 97 123
13 173 62 113 102 87
127 3 12 35 36 37
92 209 34 33 41 44
31 173 53 38 33 28
32 173 54 77 65 51
209 222 17 33 35 28
116 172 29 67 104 133
45 172 50 75 132 172
46 172 49 65 66 71
74 186 37 59 58 60
153 114 20 33 32 19
48 172 48 67 74 87
177 102 12 68 117 152
66 171 41 32 29 21
70 171 42 78 120 150
41 242 56 55 77 100
81 171 38 44 34 25
12 43 41 38 44 41
190 198 11 67 71 58
133 207 28 77 139 180
82 171 36 38 42 49
102 170 30 46 57 60
43 263 56 58 78 95
105 170 31 62 58 51
175 167 14 51 49 47
207 166 18 57 90 117
149 257 21 61 105 140
14 174 62 43 50 57
34 173 53 73 105 128
6 202 65 45 76 97
67 171 41 50 44 39
78 171 38 79 127 161
82 171 37 34 28 21
83 171 37 37 44 50
85 171 38 72 119 152
85 171 37 68 108 137
8 200 66 64 76 88
72 185 39 57 90 116
136 169 23 64 99 128
136 169 22 76 131 170
77 252 42 87 84 78
141 168 23 52 46 36
151 120 20 65 104 136
165 167 21 60 95 125
74 264 40 75 66 55
132 78 14 33 33 42
177 167 16 59 59 58
201 166 17 75 123 162
62 88 40 70 98 123
5 181 63 43 64 78
203 166 16 68 60 52
207 166 19 51 66 81
73 258 38 37 31 23
42 57 30 23 19 13
41 52 34 42 36 27
14 174 61 37 36 30
181 239 16 66 96 118
198 172 16 46 64 77
15 174 61 36 46 53
128 234 29 46 50 52
16 174 61 44 61 72
98 232 34 59 67 77
30 173 53 42 60 74
50 172 50 53 77 93
152 258 16 64 121 162
111 38 20 58 73 79
65 172 43 72 133 177
68 171 41 68 61 56
174 7 5 94 171 223
69 171 41 71 96 114
148 199 23 49 73 92
92 221 39 52 40 30
84 171 38 58 84 103
104 170 30 52 44 32
87 99 33 82 156 206
120 169 28 79 129 169
211 224 19 30 24 18
168 232 20 78 91 102
125 169 28 44 55 63
77 64 28 69 60 51
137 169 22 61 99 128
194 248 13 68 117 151
138 169 24 54 49 41
95 226 33 73 122 158
88 207 36 52 58 60
101 98 28 80 145 190
155 193 22 70 101 128
138 169 23 52 67 78
42 131 42 82 136 181
6 55 48 35 43 55
9 42 43 65 83 91
162 168 20 71 87 98
157 67 15 67 99 127
162 168 21 72 108 136
163 168 20 77 73 68
164 168 20 69 60 52
93 208 34 43 41 33
164 168 19 72 56 44
178 168 14 42 38 31
165 168 19 37 32 29
170 9 8 45 50 41
47 172 48 77 68 63
66 172 43 68 110 143
114 52 16 30 23 16
127 32 14 95 82 62
66 172 42 45 61 71
67 172 42 37 40 39
181 172 17 64 121 164
60 148 45 24 21 13
94 222 38 18 14 9
68 172 42 49 39 29
69 172 41 93 79 64
133 97 22 36 32 26
113 191 29 48 37 29
112 180 30 30 28 16
83 171 38 38 42 43
122 68 23 79 151 202
93 209 36 37 28 18
140 169 23 38 34 23
62 81 38 20 21 15
141 169 23 40 35 27
141 169 24 35 30 21
166 168 19 54 80 102
190 264 12 62 62 23
5 243 69 46 63 75
166 168 20 46 59 69
157 241 22 38 36 28
113 194 29 33 32 23
189 188 14 56 89 119
62 152 45 55 55 52
166 168 18 48 79 104
28 152 57 77 123 160
76 244 45 75 77 78
167 168 19 60 94 123
206 230 18 62 99 137
168 168 20 61 96 119
26 162 60 76 135 182
178 167 14 59 78 99
179 167 15 85 135 177
77 172 38 69 90 107
35 173 53 81 131 169
44 173 50 78 135 174
45 173 49 86 91 94
158 173 22 71 112 145
193 188 14 111 94 82
48 173 49 40 45 50
36 140 51 62 110 148
74 257 39 43 38 32
70 172 41 83 97 103
103 170 30 40 47 50
107 170 32 85 141 179
97 4 18 157 144 123
130 231 26 45 43 39
120 170 28 64 80 91
121 170 27 60 50 42
174 168 16 56 89 117
189 65 10 72 84 88
121 170 28 45 37 31
11 174 64 64 130 170
49 173 50 64 99 125
50 173 50 64 108 135
94 151 33 31 26 19
51 173 51 79 134 176
135 72 18 81 107 121
6 130 54 36 46 54
77 171 38 82 146 187
21 105 52 50 71 89
13 236 66 57 104 146
33 242 55 64 76 83
120 170 27 82 72 63
153 60 15 34 30 24
48 238 55 68 69 70
122 170 27 36 30 24
122 170 26 42 44 46
172 222 20 30 22 17
76 200 38 54 62 63
105 136 28 49 43 36
124 170 28 42 51 55
73 113 31 33 54 65
118 239 31 70 63 58
167 168 20 52 76 93
114 247 30 40 31 21
175 168 17 48 78 98
24 156 55 51 78 95
176 168 17 46 60 69
21 236 65 51 68 77
201 167 16 55 64 74
83 202 37 119 100 81
171 29 10 14 13 9
202 167 17 68 66 64
203 167 16 69 64 60
116 176 28 75 149 199
12 174 62 69 56 47
154 114 18 54 71 77
32 173 52 44 32 23
44 173 49 57 79 99
197 270 11 120 141 53
20 225 63 57 109 149
145 238 22 59 66 73
50 173 51 78 135 176
78 172 38 66 67 68
104 171 31 38 43 40
119 170 28 75 111 140
122 170 28 31 27 19
131 163 21 42 41 34
123 170 28 31 29 24
143 169 21 72 112 141
173 216 16 70 128 168
59 212 50 37 30 19
161 168 20 78 122 157
162 203 19 54 44 32
165 71 10 58 44 35
88 33 24 61 56 53
162 168 19 54 53 48
152 191 23 30 48 55
177 168 15 42 35 27
113 245 31 33 23 15
60 226 52 36 31 25
200 167 17 73 117 152
203 167 17 83 69 58
204 167 16 61 82 100
116 260 28 102 123 127
55 227 50 45 38 28
10 174 63 60 73 98
95 230 38 30 32 32
30 174 54 61 111 146
149 253 21 64 116 159
31 174 53 44 67 86
112 241 33 60 47 38
120 238 26 65 92 112
69 172 42 55 36 19
78 172 37 85 69 55
139 207 29 79 117 139
137 233 22 59 87 109
28 209 59 53 83 106
38 178 49 40 35 30
79 172 38 51 39 30
79 172 37 58 42 30
195 257 12 69 91 97
77 54 22 51 38 25
26 17 39 44 41 40
5 267 70 34 44 32
173 225 20 45 49 49
81 172 37 34 35 32
210 221 20 66 51 38
104 171 29 34 30 18
193 182 14 41 47 60
60 27 29 69 99 118
170 212 18 48 38 31
104 171 30 44 65 72
105 171 31 35 31 23
154 260 23 51 41 25
106 171 30 62 47 34
106 171 31 44 35 26
140 169 24 38 32 21
29 27 39 92 137 168
167 168 21 60 94 115
177 168 17 33 30 21
179 168 14 73 109 143
26 89 49 23 22 22
179 168 17 83 137 180
135 99 19 46 68 85
37 252 53 48 85 104
197 202 14 35 44 41
203 167 15 65 53 48
11 175 63 76 70 60
26 19 41 13 10 12
116 41 21 13 19 19
12 175 62 41 42 46
195 43 9 77 110 135
13 175 62 38 44 49
110 198 31 69 119 156
33 174 52 56 43 31
34 174 53 67 58 45
54 233 51 49 53 60
35 174 53 65 90 106
47 173 50 31 24 15
116 200 30 40 48 51
57 85 44 72 111 146
107 171 31 62 58 52
116 181 31 70 110 146
108 171 32 68 97 117
124 170 27 75 126 165
158 241 21 49 73 83
9 179 63 74 126 169
205 167 17 60 79 96
129 221 25 44 62 80
13 175 63 44 58 71
90 224 35 44 39 36
14 175 61 34 37 34
15 175 62 66 114 149
42 241 51 110 90 74
87 33 24 58 52 49
6 187 66 30 24 19
74 196 37 52 43 38
118 170 28 72 124 164
139 169 22 33 33 24
76 173 35 57 49 38
151 178 20 29 24 18
5 252 70 45 37 31
18 271 68 85 125 118
192 186 17 64 133 191
160 169 20 68 98 123
162 169 20 69 59 51
13 238 63 92 104 126
173 235 16 65 124 175
85 70 23 63 96 125
163 169 20 56 45 35
189 61 6 31 48 69
131 220 26 62 51 42
177 168 14 36 29 23
201 234 14 46 50 53
31 174 54 43 63 76
85 202 38 80 135 176
115 262 28 150 131 101
151 194 21 30 28 17
34 174 52 78 69 62
132 164 25 30 57 72
36 174 53 79 131 165
166 138 18 30 28 17
43 173 49 65 121 157
114 255 28 74 93 106
188 265 9 41 56 51
196 134 12 67 107 141
45 173 48 60 50 42
67 173 42 64 108 139
103 171 32 60 98 123
157 174 21 66 111 136
105 171 32 32 28 18
190 254 11 42 54 65
110 171 32 84 141 182
28 19 34 50 39 29
209 221 18 35 33 24
139 170 22 55 80 101
92 223 36 31 38 42
140 170 22 39 45 45
140 170 23 47 64 74
161 169 21 62 87 108
163 169 19 46 36 28
152 253 22 45 36 18
119 173 29 46 61 66
166 169 20 59 92 118
79 239 41 43 33 20
131 93 19 48 40 32
166 169 19 75 132 176
97 221 38 77 132 173
167 169 21 62 102 127
61 207 48 60 81 92
91 221 37 65 106 143
176 168 15 33 28 21
201 201 16 69 107 137
180 168 14 69 102 128
42 187 49 49 66 79
36 5 26 36 44 49
44 174 49 86 75 66
133 215 25 40 39 31
195 266 14 125 114 82
45 174 49 62 50 36
26 89 47 22 25 23
45 174 48 47 41 39
47 38 30 88 134 160
170 92 18 61 90 117
46 174 49 34 30 22
46 174 48 49 65 86
68 173 42 45 69 85
152 241 22 87 136 174
69 173 41 41 39 34
95 218 37 42 45 46
76 251 40 52 69 82
69 173 40 47 42 33
147 43 13 51 88 117
70 173 41 93 77 61
4 49 47 78 113 132
72 172 42 81 142 183
153 254 21 41 36 28
118 171 28 68 85 98
43 242 53 50 41 30
89 205 35 80 68 57
119 171 28 56 51 47
100 102 25 65 108 143
75 257 40 50 40 31
119 171 27 99 83 65
75 53 27 42 42 43
139 170 21 58 93 123
36 252 49 46 38 29
191 258 12 64 55 31
116 174 30 29 26 17
142 170 23 42 34 26
134 9 11 14 14 10
142 170 22 38 35 28
93 88 30 55 82 104
143 170 21 60 78 91
144 170 21 59 73 84
170 216 19 46 59 69
9 175 63 80 86 98
26 17 34 66 88 101
15 175 63 73 130 174
48 174 50 71 119 156
70 173 40 61 52 42
126 232 27 73 133 185
113 242 33 54 41 30
6 184 64 36 47 54
76 172 39 84 144 184
75 244 42 22 15 10
82 172 39 63 99 121
117 171 28 67 113 148
107 133 28 76 104 117
170 165 16 49 66 77
197 267 13 86 87 58
121 171 27 38 42 44
192 125 12 56 51 41
121 171 28 30 27 20
122 171 27 52 79 101
122 171 28 43 58 66
44 174 48 89 72 59
142 171 21 38 41 41
71 173 40 81 85 86
199 200 16 67 113 144
72 173 42 79 138 174
75 173 38 70 116 145
77 173 38 57 45 36
71 176 38 20 18 13
102 32 16 222 197 171
106 171 32 41 38 30
194 197 13 87 126 156
118 171 29 61 76 87
139 170 23 65 109 142
191 54 5 28 22 19
25 19 43 68 116 149
144 170 22 56 73 83
10 205 61 40 36 28
49 237 52 79 65 54
176 169 15 59 95 123
140 170 20 47 62 77
96 233 35 48 45 37
188 64 9 69 95 114
166 237 24 47 60 55
113 175 31 52 51 48
202 168 17 70 52 43
202 168 16 56 50 46
28 82 45 25 19 13
41 62 31 42 52 60
203 168 17 45 32 32
143 71 15 87 143 187
150 191 21 59 92 116
151 185 21 38 33 29
9 176 64 66 71 77
31 175 53 62 114 151
171 90 11 50 52 56
58 216 51 41 33 26
32 175 53 54 96 124
97 235 33 77 136 180
115 63 17 32 27 22
177 32 5 147 138 122
42 174 50 80 139 180
78 173 37 36 29 20
108 171 30 81 77 72
94 22 24 87 142 172
117 171 29 80 139 183
186 270 11 141 169 67
123 171 27 68 116 153
192 122 12 36 30 23
118 242 32 77 114 141
161 69 15 60 102 134
6 266 72 46 39 30
145 170 22 84 139 180
206 7 6 49 83 103
159 169 21 82 134 171
138 140 21 50 70 74
176 169 16 60 103 135
177 169 16 32 33 27
46 204 47 54 50 40
177 169 17 48 81 101
147 202 24 57 51 39
179 169 14 41 35 27
21 224 62 37 34 32
24 22 38 101 158 190
132 211 24 35 29 18
181 168 14 84 137 183
10 176 63 49 39 34
131 18 12 60 83 99
101 236 33 66 67 64
178 207 21 71 91 86
172 158 20 67 100 128
11 176 62 42 56 65
11 176 63 39 50 61
33 175 52 39 50 59
165 34 9 44 61 76
34 175 51 46 39 33
35 175 52 59 47 37
42 174 49 68 110 142
33 74 45 40 50 67
49 174 51 78 139 181
76 173 37 80 71 61
6 122 59 21 23 29
77 173 37 52 40 31
12 205 61 51 45 41
79 173 38 34 32 23
114 245 29 66 76 85
8 240 66 56 61 74
80 173 38 53 75 87
81 173 38 73 125 160
191 134 14 57 82 99
104 172 32 68 115 151
93 4 18 41 43 36
174 31 5 107 94 75
106 172 30 38 45 46
59 157 49 29 25 19
112 184 33 68 142 199
34 204 57 63 137 187
107 172 31 36 31 23
185 201 15 48 41 36
120 171 28 38 32 26
8 125 55 44 43 42
180 169 15 64 63 59
180 169 14 58 52 45
181 169 15 72 100 122
170 5 6 65 76 73
173 82 13 45 68 80
72 196 37 34 31 27
144 203 23 30 26 16
199 168 15 57 70 79
35 175 51 75 66 58
40 121 44 24 20 18
43 174 48 114 102 96
69 201 42 43 41 38
81 173 39 78 139 181
82 173 38 76 140 182
110 172 31 75 92 105
115 257 27 56 101 130
181 169 14 67 66 65
75 255 41 35 25 16
74 245 42 29 21 14
68 241 42 77 93 105
198 168 16 73 118 153
200 168 15 72 62 48
116 171 29 80 145 193
62 15 32 55 78 96
158 170 20 75 116 147
161 170 19 47 34 24
162 170 20 49 42 34
164 170 20 56 66 77
12 240 66 65 82 96
164 170 19 73 119 158
110 36 22 42 41 30
19 225 61 25 22 17
10 176 62 44 46 48
96 12 16 30 23 17
195 239 13 80 70 61
12 176 63 61 110 147
198 200 15 63 54 50
37 175 51 82 102 117
52 3 23 48 51 53
42 175 49 86 89 94
44 175 49 41 33 23
46 174 50 30 32 31
69 174 41 43 60 72
73 173 40 70 107 132
109 172 30 60 57 54
111 172 32 82 135 170
117 172 29 52 61 73
93 5 14 51 39 28
117 172 28 69 63 58
189 251 10 23 21 14
118 172 28 53 43 34
140 171 22 69 117 153
133 21 8 39 26 20
193 245 14 57 79 96
141 171 21 59 89 112
163 170 18 47 69 84
179 169 16 32 32 21
10 176 64 50 37 31
33 7 29 83 143 180
12 176 61 29 30 20
59 7 25 32 26 20
130 223 27 54 43 35
45 175 48 51 71 92
46 175 49 51 74 86
25 33 44 57 87 117
83 237 39 44 32 22
47 175 50 78 131 173
70 174 40 36 36 32
77 173 36 69 55 44
75 60 27 30 27 17
111 172 31 81 125 158
52 37 34 77 120 160
167 204 18 72 128 170
121 172 29 49 61 67
141 171 22 58 93 118
20 228 63 47 57 69
144 171 22 46 45 40
144 171 21 45 43 40
171 167 18 46 65 72
201 168 14 58 44 37
91 70 25 90 146 188
7 176 64 96 130 155
132 16 11 30 25 21
42 175 48 127 114 102
192 181 13 53 43 36
42 256 56 57 65 70
73 174 40 79 102 119
65 33 27 164 144 120
197 174 15 64 92 115
118 172 27 62 49 40
73 200 41 62 74 83
122 172 28 74 127 167
198 169 16 69 71 75
123 202 27 75 95 116
199 169 15 69 61 52
199 169 16 89 87 87
3 243 69 63 121 169
200 169 15 64 52 43
133 228 25 35 29 20
7 177 64 57 67 76
75 264 35 242 219 187
13 176 62 63 99 125
21 233 63 45 44 43
42 257 57 72 103 130
38 175 51 78 122 156
71 174 41 46 41 30
75 174 38 44 37 31
77 174 37 31 26 19
131 91 16 56 82 103
41 261 54 44 30 23
74 257 41 61 65 67
152 253 19 47 43 25
140 171 21 76 133 174
145 171 23 38 33 22
146 171 21 64 92 115
154 241 25 47 56 71
157 170 21 89 138 180
159 170 19 119 105 89
164 170 22 59 92 111
86 236 38 63 82 96
183 169 15 82 133 172
200 169 16 79 69 59
40 60 36 44 57 73
192 260 8 62 85 92
143 202 24 59 77 92
201 169 16 54 43 40
143 202 23 64 63 62
201 169 15 54 69 84
108 173 32 36 42 41
202 169 15 69 117 157
67 204 45 43 50 51
196 171 15 104 84 69
8 177 63 43 37 31
44 202 50 47 37 27
10 177 62 41 56 67
11 177 62 38 52 58
34 176 52 45 63 77
47 175 51 84 139 181
71 174 39 51 55 59
161 38 8 99 164 199
79 174 37 76 125 165
19 208 62 80 87 90
38 252 50 51 47 40
201 203 15 32 28 19
80 174 37 81 141 184
132 211 23 34 29 20
106 173 32 65 108 142
113 51 22 67 95 118
29 210 60 28 34 26
106 172 32 42 59 66
24 86 53 56 79 100
121 172 27 67 115 154
143 171 21 33 29 19
157 170 20 88 135 180
40 44 35 27 23 19
163 170 20 58 74 86
177 170 16 80 138 184
130 96 23 77 126 155
179 170 15 37 42 43
6 45 42 66 96 113
189 246 15 37 31 18
180 170 14 34 28 20
195 269 10 62 78 31
185 103 11 105 112 121
72 176 37 39 33 25
6 177 64 93 117 134
10 177 63 41 56 70
12 177 62 63 99 125
94 230 34 58 52 42
36 6 26 34 52 67
35 176 51 36 40 40
93 218 37 31 29 24
36 176 51 66 53 42
56 145 47 38 34 26
60 29 34 18 18 18
37 176 51 115 104 90
111 240 31 71 109 142
39 184 49 26 22 16
73 129 32 48 76 95
37 176 52 83 69 53
81 202 37 38 34 28
45 175 50 53 72 81
23 92 48 83 121 154
74 174 38 59 83 100
80 174 38 87 141 183
4 261 69 41 53 50
108 173 31 35 37 33
55 75 39 76 87 95
95 14 20 27 25 23
147 171 21 82 132 171
124 235 31 69 93 114
157 171 21 76 110 137
155 242 17 67 129 182
53 238 57 78 119 155
146 172 23 56 47 35
181 170 14 51 50 46
113 124 29 41 66 84
203 5 7 66 127 179
112 108 23 69 118 161
182 170 15 64 63 59
182 170 14 65 62 57
123 205 27 54 77 93
183 170 15 70 93 112
185 268 7 68 71 32
7 177 63 49 49 47
75 255 40 53 45 34
38 176 51 82 100 110
94 22 22 58 72 81
197 200 15 68 56 47
40 175 50 75 123 162
40 175 49 79 138 180
23 208 59 90 81 72
111 173 31 81 85 86
146 171 22 54 62 71
74 184 39 20 16 11
147 171 22 80 128 163
212 93 18 70 116 147
73 179 40 22 20 9
160 171 19 43 35 29
209 230 20 67 67 71
161 171 19 54 57 61
27 19 39 34 48 62
174 235 18 66 79 90
162 171 19 68 105 135
62 214 51 42 46 41
140 236 21 48 66 74
111 242 34 78 98 114
162 171 20 52 67 81
41 176 49 86 81 77
43 176 48 42 49 56
114 126 29 54 106 139
111 173 30 65 66 67
64 10 28 64 94 109
115 173 29 58 79 96
170 99 16 81 139 184
115 173 28 110 103 94
116 172 28 78 85 89
197 169 16 77 132 168
117 172 27 122 104 83
168 99 17 68 62 53
190 182 13 23 21 17
156 171 20 71 113 143
159 171 21 73 47 30
160 171 20 41 34 27
112 37 16 108 165 203
163 171 20 70 116 148
183 170 14 75 75 74
44 176 49 42 54 59
21 227 61 17 15 11
135 213 28 74 135 177
46 176 49 78 130 173
62 231 53 52 62 62
70 175 41 62 109 144
64 73 38 45 58 70
71 175 40 36 44 46
193 201 15 61 107 148
112 173 30 76 109 130
91 213 37 70 120 158
116 178 31 60 83 102
117 173 28 44 36 26
118 173 28 33 32 28
119 173 28 64 97 123
192 189 10 83 122 150
152 253 17 70 125 169
143 172 21 41 46 44
144 172 22 36 34 27
198 169 14 48 45 42
35 176 50 45 51 60
36 176 50 55 59 64
70 175 40 62 102 133
73 175 40 206 178 152
73 175 39 72 63 56
113 245 32 45 35 24
115 173 30 76 120 153
118 173 29 36 33 22
152 258 23 71 57 34
198 238 12 55 73 89
131 222 26 48 36 26
119 173 27 63 109 146
146 172 22 53 52 48
112 185 28 39 36 30
28 207 57 36 33 23
148 171 22 81 141 183
202 237 22 46 67 73
196 170 15 68 90 115
152 241 19 50 65 71
197 170 15 78 72 68
6 178 64 45 51 54
7 178 64 42 37 30
73 175 38 72 73 74
52 72 34 64 50 30
158 68 11 85 133 175
120 173 28 84 138 177
147 172 21 53 69 79
9 202 65 76 61 46
184 170 14 78 110 137
198 170 14 54 51 45
199 170 16 43 39 39
56 218 52 42 38 36
154 244 25 74 83 87
7 265 73 63 61 59
199 170 15 46 36 31
200 170 15 48 59 71
41 179 50 119 145 166
200 170 16 36 35 39
193 248 13 48 56 62
7 178 63 37 33 29
111 193 31 68 109 144
8 178 63 39 48 57
9 178 63 53 80 103
10 178 63 67 115 152
193 176 16 67 128 171
39 176 51 71 102 120
191 128 16 69 136 190
67 205 45 48 57 54
33 205 55 40 39 37
39 176 49 92 144 183
45 176 50 79 131 171
43 202 51 46 39 28
74 175 39 55 44 31
197 0 4 95 158 199
113 173 31 77 129 162
147 172 23 46 43 42
52 105 40 29 26 17
148 172 22 65 93 112
157 171 19 199 176 149
97 11 19 44 66 80
197 170 14 60 54 49
29 146 54 37 52 60
34 177 52 63 117 158
89 31 21 79 103 116
35 177 52 57 105 138
26 148 54 38 37 37
35 177 51 40 55 64
208 228 17 67 77 85
62 236 49 68 115 149
156 172 21 66 85 96
211 76 13 70 117 150
29 236 60 63 85 105
41 260 52 69 86 74
156 172 20 80 84 82
152 44 12 34 29 23
179 171 15 68 118 155
112 256 28 34 27 20
180 171 16 38 53 56
181 171 16 31 32 23
154 250 24 36 29 25
181 170 16 43 40 29
181 171 14 42 43 46
104 204 33 60 79 92
36 139 51 46 63 80
36 177 50 38 40 42
109 68 21 38 39 35
205 231 18 64 111 155
37 177 50 55 46 38
90 207 35 39 34 28
38 177 50 90 81 72
39 177 49 78 85 88
59 156 49 40 32 23
41 176 48 127 108 87
71 261 41 107 139 86
171 227 18 38 31 22
74 175 37 41 34 26
41 264 55 30 25 17
110 174 31 35 34 29
96 19 24 111 184 231
110 174 30 37 39 37
114 173 30 80 139 179
51 170 48 55 74 94
132 233 23 67 116 156
72 193 40 68 139 190
155 172 20 72 103 125
145 104 19 32 34 26
157 172 20 78 61 48
35 247 50 49 44 30
166 6 7 75 135 173
158 172 20 43 32 25
193 47 7 93 121 142
160 172 20 46 53 57
181 171 15 35 34 29
183 171 15 61 56 46
7 269 68 39 37 19
183 171 14 50 42 34
40 246 55 18 14 8
96 89 26 38 41 45
94 17 17 88 123 145
190 45 10 67 112 148
56 30 36 48 43 44
91 208 32 41 49 51
184 171 14 66 62 58
96 4 18 143 149 153
209 97 17 75 121 161
151 41 13 36 55 64
173 210 17 66 115 155
7 178 62 32 25 18
192 55 7 88 78 67
37 177 51 53 41 32
40 177 48 55 43 34
210 79 16 20 20 18
41 177 49 42 35 25
7 267 71 44 39 26
42 177 49 36 35 31
165 139 19 78 136 187
133 218 26 37 30 24
44 176 50 78 137 178
73 175 37 44 36 30
111 174 31 43 34 26
72 241 44 73 69 66
112 174 31 65 63 60
89 72 28 83 155 204
112 174 30 63 80 91
173 24 7 83 129 156
190 178 13 34 30 25
7 65 43 36 66 92
113 174 31 63 69 76
73 174 41 87 140 177
114 174 30 65 94 117
114 174 29 54 59 62
92 97 28 65 82 96
115 174 29 69 60 51
151 112 18 26 22 16
149 172 22 86 133 170
156 172 19 103 93 75
129 215 25 65 118 161
158 172 21 31 24 16
161 172 21 70 116 147
180 206 18 62 82 89
64 28 31 40 48 60
38 177 51 129 107 84
47 240 55 47 37 25
125 35 15 59 87 114
42 177 48 46 61 73
7 267 70 42 38 30
198 131 14 84 137 182
43 177 49 62 97 124
74 111 33 25 21 15
150 193 21 50 71 88
43 67 33 15 11 10
72 175 38 56 69 81
116 174 29 42 36 25
116 174 28 47 41 32
61 22 32 73 93 109
36 243 52 40 34 24
118 174 29 67 109 135
145 173 22 48 67 79
57 169 47 40 44 39
145 172 21 35 29 20
116 256 28 64 118 160
154 172 20 82 141 183
157 172 19 77 64 49
160 172 19 62 93 118
21 209 60 55 62 70
94 215 39 24 20 14
194 170 14 77 139 179
23 6 33 109 164 200
131 209 22 35 28 19
41 179 49 65 76 85
5 178 65 85 126 152
16 272 70 106 123 80
131 231 23 53 58 58
9 178 64 77 126 168
44 177 49 77 134 177
71 176 39 33 35 31
89 71 27 33 35 32
172 227 16 59 110 148
102 32 17 89 66 54
143 173 22 77 131 172
160 172 21 65 99 126
192 245 11 65 94 123
195 171 14 90 89 89
132 96 21 42 35 25
204 233 18 57 71 82
200 170 14 73 117 154
174 213 21 41 56 71
5 179 65 44 55 65
5 179 64 38 35 34
162 68 13 56 70 77
75 53 24 22 17 14
92 214 35 34 34 34
6 179 63 31 27 21
46 201 51 74 127 166
72 176 38 31 29 27
188 198 15 74 129 176
114 246 35 12 8 7
93 206 36 67 89 103
73 176 37 39 37 33
75 176 38 35 34 27
119 174 29 79 141 180
144 173 23 78 135 176
41 263 52 81 74 49
145 173 21 39 42 39
147 173 21 45 42 39
148 173 22 59 54 47
195 171 15 104 101 101
196 171 14 62 55 48
197 171 15 60 47 39
115 190 29 42 44 49
197 171 14 56 47 40
198 171 15 39 38 39
129 228 26 70 125 170
8 179 63 56 90 115
45 242 55 69 100 123
195 171 13 53 60 66
57 223 51 39 37 37
198 171 14 51 51 51
200 171 15 73 106 132
58 76 40 33 29 28
39 177 48 59 48 44
59 156 48 58 51 43
113 174 29 57 84 110
147 173 20 41 33 26
206 18 12 73 107 141
154 173 21 61 85 103
194 171 13 60 71 87
131 97 23 75 86 86
4 179 65 52 90 115
131 212 24 39 32 25
36 178 51 48 77 97
74 49 22 86 118 140
37 178 50 35 38 38
109 65 19 55 101 127
74 176 37 28 24 17
192 239 10 39 56 73
111 179 30 33 47 59
180 35 11 92 154 203
150 173 22 89 114 138
55 207 50 49 42 33
153 173 20 79 122 154
154 173 20 61 74 79
197 239 14 54 45 41
155 173 21 53 57 62
155 173 20 75 64 53
70 241 46 69 119 164
153 261 22 67 57 44
134 27 12 53 56 58
114 257 27 59 100 128
98 26 18 24 21 14
156 173 20 47 36 26
127 233 31 58 102 140
157 173 20 31 25 19
191 254 8 64 62 44
209 214 17 59 105 147
157 173 19 54 50 44
158 173 20 41 56 66
120 238 32 49 63 73
182 172 15 40 51 58
8 179 64 73 113 148
76 65 23 27 24 14
37 178 49 42 36 29
131 231 24 43 56 64
39 178 50 49 37 25
209 215 18 55 79 96
40 178 48 35 30 25
135 163 24 81 130 163
192 49 8 99 100 99
188 55 10 63 96 124
41 178 48 39 45 49
75 176 37 42 54 60
152 184 22 22 16 11
110 175 30 54 79 98
111 175 31 39 49 53
111 175 30 33 33 31
190 129 16 58 112 162
95 207 38 53 66 78
112 175 30 34 31 26
210 216 22 35 30 28
152 124 19 41 35 29
11 45 43 96 146 182
156 173 19 64 51 38
62 235 47 47 54 57
23 210 61 62 90 111
158 173 21 60 86 103
193 242 16 39 37 27
92 232 33 63 98 122
159 173 21 64 107 135
182 172 14 52 73 89
211 228 18 41 53 57
183 172 15 33 30 22
184 172 14 40 32 25
65 204 48 69 119 155
210 218 23 47 58 75
184 172 15 40 37 29
185 172 15 56 63 66
209 93 18 80 104 123
18 75 43 83 137 188
4 179 64 51 67 86
107 201 32 46 38 33
7 179 64 40 50 57
42 178 48 41 49 58
153 174 22 49 37 32
42 178 49 70 109 138
43 178 49 75 134 177
127 205 25 74 68 63
114 175 29 45 37 28
41 257 52 48 47 47
115 175 30 43 41 32
144 205 25 76 116 144
116 175 29 44 55 58
146 173 20 38 47 49
43 241 53 89 73 58
112 247 29 26 20 15
153 173 21 75 114 144
198 135 16 71 117 153
93 222 37 42 33 24
157 173 21 26 27 23
186 172 14 76 75 73
186 172 15 85 116 139
208 138 13 35 29 23
40 67 38 105 131 154
149 198 20 133 121 100
182 202 19 49 73 98
117 198 30 74 114 150
41 178 49 41 43 40
5 198 66 30 32 27
39 188 48 40 44 44
43 178 50 81 142 184
75 178 39 15 13 11
167 165 21 63 112 149
74 244 38 73 119 156
76 176 38 74 93 102
117 175 29 77 121 157
208 232 21 57 53 55
26 214 62 52 82 102
149 173 23 73 108 135
69 137 39 32 36 29
80 203 35 55 74 81
158 173 19 60 88 108
96 158 35 78 137 176
26 211 63 40 56 66
159 173 19 65 107 138
193 171 13 81 134 180
4 180 65 49 64 77
11 272 69 62 87 51
209 22 12 80 149 202
27 212 62 12 11 8
5 180 64 29 25 20
113 175 29 49 41 36
197 171 13 56 74 84
151 174 22 73 89 103
6 180 63 35 38 39
7 180 63 51 77 96
7 180 64 63 104 136
8 180 64 77 130 175
74 177 38 31 29 20
75 177 38 44 54 60
84 169 38 50 51 56
84 35 22 82 72 59
76 177 39 95 123 145
69 238 41 72 128 178
207 214 20 66 117 165
192 262 14 24 19 12
145 174 22 81 137 181
149 174 22 49 44 37
24 214 61 30 27 19
195 172 15 50 42 39
36 242 54 55 49 47
197 172 15 47 52 61
72 39 29 79 137 180
196 268 10 50 51 18
197 172 14 52 64 74
76 41 24 61 55 44
6 242 70 56 99 131
197 172 13 60 83 104
24 93 55 67 107 136
198 172 15 61 80 93
160 103 18 75 134 184
198 172 14 70 106 133
58 205 48 116 106 96
149 174 21 65 61 55
149 174 23 52 43 32
164 34 13 78 145 196
196 241 19 62 93 110
182 172 16 40 60 64
168 165 20 42 43 39
192 263 11 47 36 23
76 177 38 66 73 78
149 243 25 81 98 109
167 233 17 50 85 114
19 236 65 42 40 35
150 174 22 55 54 53
151 174 21 75 104 126
154 174 20 72 64 52
40 138 46 85 142 188
155 174 20 40 32 23
184 172 13 37 29 21
210 82 15 45 48 54
188 172 14 92 134 167
197 172 12 61 101 133
184 202 15 54 46 34
157 174 20 57 86 106
211 220 19 67 94 110
6 180 64 47 64 79
56 221 52 47 59 68
193 130 13 79 72 65
37 179 50 45 67 83
109 201 31 41 37 25
38 179 49 42 41 37
39 179 49 34 27 18
198 268 10 64 50 35
42 178 50 83 133 171
75 43 21 26 21 14
154 192 23 46 66 77
111 176 31 59 95 121
197 39 7 91 123 149
210 208 16 24 23 16
158 174 21 70 129 163
40 179 48 43 54 60
166 35 9 92 157 207
112 176 30 36 40 44
113 176 30 49 33 23
113 176 29 43 33 25
160 35 9 94 127 151
61 226 52 63 95 121
184 173 15 42 51 55
191 249 13 36 27 17
185 173 14 34 30 22
95 215 38 43 41 35
187 173 14 73 73 71
14 238 66 74 67 59
41 179 48 59 95 118
43 47 31 31 27 20
111 176 30 54 87 109
115 176 29 46 57 59
188 173 14 86 96 101
192 172 12 45 53 60
112 240 34 69 85 103
4 181 64 35 38 39
6 243 66 67 68 73
8 244 70 44 64 72
38 179 48 40 43 42
25 31 43 32 39 46
71 178 39 53 77 96
72 178 38 31 26 19
191 253 14 43 31 19
40 259 53 49 36 25
120 202 30 61 49 36
112 176 31 32 41 46
134 163 25 54 84 106
147 174 23 53 88 108
135 17 10 68 118 148
185 173 15 36 34 24
187 173 13 54 42 33
191 173 12 69 102 135
192 173 13 87 94 98
176 73 13 72 113 145
193 173 12 93 86 73
69 255 40 51 106 140
137 208 25 73 128 167
83 236 43 59 90 117
193 173 13 99 89 79
57 31 35 67 83 100
197 172 16 36 41 44
40 53 37 76 140 184
189 268 15 49 42 16
5 181 64 31 31 29
6 181 64 54 80 99
68 173 43 58 113 156
40 179 49 32 30 19
94 95 33 76 135 173
72 178 39 33 31 28
160 240 19 60 107 140
74 178 38 22 19 12
192 188 12 70 61 50
75 178 38 32 35 37
183 173 16 61 102 131
23 218 61 59 53 49
189 173 15 92 116 143
191 173 13 74 114 149
75 57 27 101 96 91
204 100 17 78 137 179
46 106 39 85 131 169
194 173 14 48 41 36
153 197 20 29 23 18
195 173 15 35 33 32
195 173 14 39 39 40
171 80 14 33 29 24
8 181 62 57 95 120
195 173 13 49 56 63
196 173 14 62 77 91
73 178 39 31 27 15
59 145 42 73 126 165
76 178 39 68 102 127
161 240 21 70 115 146
148 175 22 46 65 77
150 175 22 34 31 25
194 173 13 50 43 35
194 173 15 44 37 34
196 173 15 55 81 102
115 176 30 50 58 57
111 248 32 59 89 112
148 175 21 44 58 65
116 261 32 64 50 39
23 221 62 26 26 18
149 175 21 33 31 27
150 175 21 40 31 23
193 196 13 46 69 87
54 231 53 65 121 165
152 175 20 49 47 43
153 175 21 47 47 46
121 239 28 70 106 133
115 264 35 89 71 58
193 173 14 76 74 78
60 28 36 25 29 34
37 180 50 64 105 134
151 175 20 64 86 106
156 41 9 83 131 169
154 175 19 65 64 53
10 40 45 101 161 201
82 203 36 40 46 47
155 175 20 45 55 60
173 222 20 25 21 14
16 234 65 49 65 80
155 175 21 43 58 68
139 237 21 60 57 35
82 203 35 40 40 32
155 175 19 55 69 80
82 240 44 89 129 165
156 175 19 62 93 113
136 205 25 72 82 92
157 175 20 76 138 175
197 173 16 69 126 163
173 207 20 49 56 62
39 180 49 30 26 14
135 206 23 56 45 34
39 180 48 33 31 22
40 180 49 24 22 17
41 180 49 39 53 66
115 197 30 40 51 63
42 180 49 95 115 133
137 206 23 39 46 45
71 178 40 78 143 189
102 4 16 75 116 152
148 240 20 66 119 165
114 176 30 46 40 22
184 174 15 56 94 120
25 228 61 50 61 72
185 174 14 40 51 55
60 145 47 44 40 29
155 45 11 100 144 180
74 178 37 56 64 66
176 74 11 58 79 103
112 177 30 41 37 35
112 177 29 36 31 25
153 175 19 92 75 54
72 188 36 87 83 76
106 33 20 127 173 207
186 174 14 35 32 24
118 239 30 60 50 39
188 174 14 58 56 52
192 267 13 49 51 20
126 204 22 77 133 180
190 173 15 81 134 174
12 203 65 73 99 116
187 174 13 28 23 17
189 174 14 68 74 77
123 33 15 103 176 217
190 174 14 91 127 155
190 174 15 71 100 127
191 174 12 74 76 76
74 179 38 20 17 12
43 202 49 52 46 34
186 174 15 41 49 48
148 65 13 101 98 97
192 174 13 85 74 64
56 211 52 59 95 123
138 205 25 44 39 33
193 174 14 41 40 41
38 180 48 36 44 44
71 179 39 31 42 51
91 70 23 91 146 184
75 179 39 29 22 17
115 177 29 66 102 130
148 176 22 77 128 175
35 175 53 36 33 23
156 241 21 49 37 24
194 174 13 57 65 70
112 122 28 36 55 69
170 231 16 38 32 25
195 174 14 69 111 141
149 107 21 65 109 150
196 174 15 73 116 151
196 174 14 78 109 126
112 241 29 52 77 97
179 5 6 39 61 67
40 180 50 18 14 10
150 176 21 34 39 42
53 37 30 26 23 15
4 257 71 64 98 124
151 176 22 25 22 16
45 136 45 37 36 22
127 232 26 90 84 73
152 176 21 37 29 22
131 5 9 52 50 48
185 174 16 54 89 116
209 149 20 91 87 78
171 151 20 39 43 42
90 5 14 85 126 162
147 239 24 48 39 34
47 39 29 65 55 41
192 174 14 59 65 72
151 48 14 48 73 95
192 192 11 59 86 105
152 176 22 30 39 44
89 207 34 56 87 110
152 176 19 46 37 30
153 176 20 46 42 37
154 176 20 47 67 80
188 60 10 98 152 197
187 174 15 40 36 27
131 74 18 28 37 34
171 230 18 47 36 25
87 203 34 80 125 161
153 188 20 73 63 52
195 174 15 65 107 137
152 45 13 28 24 17
152 242 21 54 69 86
4 182 64 35 50 57
6 182 65 70 106 131
194 42 7 98 129 142
38 181 49 29 26 16
38 181 48 35 41 37
78 260 42 132 147 107
39 181 48 30 26 18
39 181 49 25 22 13
63 99 42 41 35 29
115 251 34 70 60 47
155 176 20 79 134 177
134 138 23 87 145 187
192 263 9 60 56 46
7 182 64 69 118 155
151 262 20 109 99 79
199 236 13 44 43 40
41 181 50 28 25 23
203 31 7 85 70 51
111 178 30 49 65 82
191 263 12 14 11 6
121 137 25 59 97 123
114 194 31 15 13 6
112 178 30 32 26 20
113 178 30 33 28 15
8 252 72 59 91 115
186 175 15 67 108 143
194 174 15 43 56 66
130 75 14 77 117 152
114 251 30 61 56 49
5 182 63 45 66 79
30 74 44 39 54 62
114 178 30 16 13 9
74 42 29 79 154 211
187 175 15 53 74 89
109 104 27 58 88 109
187 175 14 41 41 40
188 175 14 35 31 23
134 97 22 31 60 77
189 175 14 43 40 36
188 38 6 120 108 89
191 174 14 67 94 117
38 181 50 25 21 13
111 254 28 71 59 44
7 66 44 43 67 86
71 180 40 68 124 165
40 61 37 67 105 132
71 180 39 30 46 56
72 180 39 29 30 20
75 179 37 75 103 126
130 213 26 48 50 52
174 231 19 48 80 103
46 136 42 128 106 74
111 178 31 63 98 129
66 206 46 33 48 58
10 244 70 60 114 154
113 178 29 27 27 18
150 42 15 65 115 152
153 176 19 49 57 60
75 196 37 51 63 80
98 24 20 50 83 111
189 175 13 38 31 25
7 241 68 55 94 124
4 183 64 45 80 107
93 211 36 24 23 20
73 180 38 14 13 8
76 180 39 56 57 61
206 234 16 49 61 75
203 98 16 77 108 137
93 210 37 30 23 15
76 180 38 66 82 99
188 175 15 34 36 29
194 175 13 91 112 129
155 46 10 89 128 157
74 180 39 10 9 6
151 194 20 26 24 13
149 177 22 80 143 187
139 206 23 55 81 101
26 207 59 74 64 55
98 22 19 97 161 200
5 183 65 36 38 39
75 180 37 63 69 78
150 177 22 43 66 83
150 177 21 48 63 74
113 52 23 86 153 201
150 177 20 41 39 35
185 240 14 37 29 18
95 7 22 65 97 109
151 177 20 35 28 20
152 177 20 37 30 23
63 237 47 68 131 174
125 135 23 93 153 198
60 96 39 39 30 17
38 182 49 30 29 20
67 73 33 39 45 50
76 180 37 72 109 140
206 3 6 74 113 130
190 110 13 17 18 15
166 233 17 52 82 105
193 175 12 83 106 120
41 182 49 68 69 75
174 207 20 40 45 47
42 182 49 65 87 106
42 182 50 72 107 136
176 234 17 94 72 58
111 179 31 58 91 117
31 35 34 156 135 116
112 179 30 32 29 16
153 177 21 38 43 42
64 10 27 36 34 29
37 182 49 33 56 73
39 182 48 29 25 19
110 179 31 85 145 190
113 179 30 16 15 8
114 179 30 21 18 13
115 179 30 47 42 37
4 184 65 26 32 34
51 205 48 55 74 89
192 193 11 65 90 112
5 184 64 38 52 58
71 181 39 27 40 46
114 65 18 32 26 17
116 179 30 60 87 113
187 176 15 72 116 155
188 176 14 50 70 83
137 208 27 61 75 84
189 176 14 28 29 24
154 196 21 35 37 39
4 184 66 24 41 54
72 181 39 29 34 25
70 70 34 78 127 172
210 230 16 70 121 161
41 66 32 67 98 122
47 202 51 75 132 170
72 181 38 23 27 20
23 159 59 33 25 18
73 181 38 16 17 13
74 181 38 38 30 21
92 97 32 51 46 41
43 40 33 120 123 123
116 179 29 62 91 117
189 176 13 33 30 26
10 203 65 102 81 62
190 176 12 37 28 21
192 176 12 59 84 104
98 31 18 104 89 72
31 241 58 65 124 163
76 181 38 55 78 101
153 177 22 23 19 12
190 183 13 31 27 20
193 176 13 70 102 126
149 178 22 74 123 164
9 243 68 39 42 43
150 178 21 39 38 37
151 178 21 30 25 15
28 206 59 110 109 100
154 177 20 79 135 178
129 235 27 71 108 129
7 184 66 78 129 167
114 123 28 15 15 11
81 236 41 72 126 164
37 183 49 28 37 35
193 252 18 152 171 110
149 178 21 58 89 116
25 227 61 69 92 104
153 178 21 36 32 28
39 183 49 18 16 11
40 183 48 48 39 32
57 228 49 52 66 77
111 180 31 48 79 104
151 241 25 66 90 111
7 184 64 67 113 148
42 183 49 60 96 122
69 238 43 59 78 93
198 3 7 91 163 217
112 180 31 32 30 18
113 180 30 12 11 7
24 216 62 20 17 12
115 179 31 40 31 23
171 8 7 24 23 16
11 267 71 76 111 128
152 178 20 30 30 26
154 178 20 72 107 134
39 183 48 34 28 22
153 245 23 32 26 17
113 194 31 29 26 13
152 180 20 43 41 35
192 195 11 73 90 108
115 180 30 53 48 44
115 180 31 52 42 33
41 242 55 44 42 43
116 180 30 61 89 116
40 184 49 46 36 28
189 176 12 34 29 21
192 176 14 59 80 94
146 107 20 81 129 173
97 233 33 48 45 36
5 185 65 28 33 35
152 255 20 39 31 22
40 57 37 52 70 89
5 185 64 54 100 134
72 182 40 40 65 81
72 182 39 28 32 21
92 208 34 39 36 27
73 182 39 22 25 17
113 113 27 25 23 19
83 237 36 77 118 151
88 232 38 54 91 122
113 180 29 20 17 12
192 177 16 88 120 149
190 177 12 27 22 17
102 31 18 115 143 159
8 265 72 68 96 110
190 177 11 28 28 24
55 165 49 58 51 45
74 182 38 48 38 27
74 182 37 56 46 37
54 235 54 51 43 34
75 182 38 42 35 32
150 252 23 60 107 137
75 182 37 58 58 59
74 246 39 34 27 20
168 205 19 76 113 149
76 182 39 76 124 162
36 71 42 33 28 24
152 178 22 18 17 14
58 218 50 25 25 15
74 45 28 80 133 167
59 102 41 88 144 188
189 177 12 32 26 18
192 177 12 62 101 129
68 139 42 85 142 183
191 177 14 25 21 16
192 257 8 72 55 40
192 177 13 62 89 111
157 38 11 70 81 91
4 185 65 23 31 32
76 182 38 63 102 134
192 177 15 104 109 113
170 32 9 73 135 178
78 262 42 122 143 87
149 179 22 69 115 155
149 179 21 50 77 101
27 30 38 36 34 29
152 179 20 47 50 48
6 51 46 37 52 67
38 184 49 20 22 19
187 40 6 40 63 97
153 179 21 46 37 28
61 218 52 76 126 161
78 199 39 124 108 88
154 179 21 76 86 94
61 71 35 67 80 90
39 184 48 39 32 25
187 181 14 70 119 165
42 184 48 51 73 87
42 184 49 63 105 137
193 197 14 70 80 88
111 181 30 23 31 29
45 109 40 32 38 38
112 181 30 24 24 14
154 179 20 85 102 116
113 181 29 34 28 21
204 203 16 55 58 62
114 181 30 52 41 29
42 49 30 26 22 15
115 181 30 40 39 37
189 179 15 66 116 162
150 179 22 35 38 37
6 186 64 34 45 51
96 207 36 42 40 33
7 185 64 63 92 115
164 202 18 71 134 185
72 183 40 57 100 131
94 96 26 72 57 46
96 30 22 77 135 175
152 184 21 31 23 17
204 203 17 56 75 92
77 47 22 51 40 29
89 235 37 78 142 188
117 261 34 81 81 41
114 181 31 47 36 25
7 257 72 39 33 25
60 231 49 73 68 67
188 178 14 62 104 138
37 184 51 39 84 117
192 184 17 72 127 165
187 270 11 143 166 64
38 184 50 29 34 30
134 217 24 70 112 142
115 262 34 128 85 73
73 183 40 27 34 33
73 183 38 41 38 32
74 183 38 46 35 25
111 181 32 66 113 156
189 178 13 33 27 21
22 155 57 23 22 14
189 178 12 32 25 19
