ply
format ascii 1.0
comment Created by Open3D
element vertex 370
property double x
property double y
property double z
end_header
201 2 5
130 5 10
139 4 7
68 3 21
168 5 5
55 4 24
176 4 3
98 5 16
36 5 27
62 7 27
93 7 17
208 8 7
171 9 4
21 7 33
29 9 33
132 10 8
60 12 31
170 13 6
26 14 37
95 14 19
132 16 10
207 16 9
60 18 30
132 19 8
171 20 7
59 21 33
26 21 39
28 22 35
95 21 20
208 24 10
132 24 11
95 26 18
170 26 8
61 27 31
26 28 38
94 30 21
168 31 7
58 31 34
203 31 9
131 31 12
24 34 41
178 34 7
104 34 19
31 36 36
65 34 28
52 35 32
142 35 11
84 35 22
196 37 7
161 35 9
120 36 14
111 38 19
154 39 9
187 39 8
75 40 23
15 39 42
44 40 32
149 41 12
114 42 16
72 42 25
31 39 37
37 42 34
191 44 7
7 45 43
190 48 9
152 47 11
75 47 23
41 48 32
114 48 19
75 51 25
114 53 17
6 52 46
191 53 7
152 53 11
40 54 34
76 56 23
114 57 20
7 58 45
41 58 32
152 59 12
190 60 8
41 63 34
75 63 26
6 63 47
116 64 19
152 64 12
194 66 10
108 67 22
42 67 34
183 67 9
161 68 12
83 68 25
69 69 31
141 69 15
125 70 17
38 70 39
10 70 47
205 70 12
175 71 11
99 71 25
52 72 35
61 73 36
169 74 12
92 74 25
132 74 16
31 74 44
18 74 47
209 76 14
25 78 46
130 78 16
59 79 39
95 80 26
171 81 13
132 82 18
24 83 49
29 82 45
208 83 15
60 86 40
93 87 28
171 88 14
132 89 17
25 89 48
58 92 41
24 93 51
209 92 15
94 94 28
171 95 13
61 97 39
132 97 19
25 98 49
203 98 14
91 99 30
55 100 42
167 99 16
21 102 53
140 101 17
102 101 26
122 102 22
180 102 12
82 103 31
159 103 16
195 104 11
66 103 37
48 105 41
30 105 47
149 106 17
111 106 25
188 107 12
14 107 54
73 108 33
116 108 24
75 111 31
37 109 43
152 111 17
42 111 41
190 112 12
7 112 55
113 115 26
151 116 18
74 117 33
191 117 11
39 118 42
6 120 57
152 123 18
113 123 26
190 124 12
74 125 32
40 126 43
6 127 56
190 130 12
150 130 18
114 131 26
73 132 34
39 133 44
6 133 58
192 133 14
159 134 18
181 135 14
105 135 29
83 136 32
202 136 14
124 137 23
141 136 20
11 138 56
66 137 41
47 138 43
96 139 31
168 139 16
33 139 50
174 140 17
90 141 31
209 141 17
132 141 22
58 142 44
19 143 55
27 144 54
54 144 45
130 146 22
93 146 32
170 147 17
209 149 19
59 150 47
23 150 56
131 151 23
93 152 33
171 155 18
209 154 17
131 158 23
24 158 57
58 158 47
209 160 18
93 160 33
170 162 18
59 165 46
134 165 23
23 165 58
205 165 18
91 166 35
175 167 16
125 168 26
53 169 49
102 169 31
162 169 20
26 170 55
197 171 15
143 171 22
80 171 36
117 172 28
67 171 41
184 172 15
15 172 61
45 173 48
111 175 30
153 175 20
35 175 51
191 176 13
73 177 38
7 178 63
150 179 22
39 181 48
113 182 30
152 184 21
190 184 14
5 184 64
74 185 38
39 190 48
113 190 30
191 191 12
6 191 64
152 192 21
74 193 38
189 198 13
114 198 29
40 198 49
5 198 65
153 199 20
73 200 39
197 201 14
106 201 32
82 202 36
143 202 23
11 204 63
163 204 19
180 203 17
124 204 26
35 204 53
63 205 47
206 205 16
98 205 36
48 204 48
90 207 35
135 207 25
172 208 19
57 209 49
27 208 60
18 209 60
130 210 25
210 211 20
93 213 36
132 215 27
171 214 20
22 215 61
58 217 51
92 218 35
171 218 18
209 219 19
131 219 24
94 222 37
23 222 62
58 224 51
171 224 19
132 226 25
92 226 35
210 226 18
20 227 61
56 230 50
169 231 18
209 230 20
94 231 37
23 232 61
130 232 25
60 233 49
204 233 17
94 233 34
134 234 26
176 235 16
84 235 39
203 236 22
49 236 53
16 236 65
103 236 33
140 236 22
161 237 20
64 236 45
121 237 29
197 238 14
29 238 57
185 239 14
69 238 44
76 239 39
161 239 24
112 241 31
148 241 22
8 241 67
197 240 19
35 241 55
41 242 52
154 242 21
72 244 40
191 243 11
114 244 28
114 246 33
151 248 20
191 248 14
3 247 69
37 248 51
74 249 41
112 250 30
190 251 10
73 253 39
152 253 22
40 253 54
5 254 70
114 255 32
192 255 12
151 257 19
38 256 50
75 257 41
3 259 68
113 259 29
190 260 9
39 261 53
152 260 22
73 261 38
6 263 71
115 262 33
152 261 15
76 264 42
4 266 69
192 266 12
37 265 51
155 263 23
185 267 8
40 266 56
10 269 67
181 269 10
198 269 11
186 269 14
15 272 67
13 271 61
